# .PCD v.7 - Point Cloud Data file format
FIELDS x y z rgb imX imY
SIZE 4 4 4 4 4 4
TYPE F F F F F F
COUNT 1 1 1 1 1 1
WIDTH 854
HEIGHT 1
VIEWPOINT 0 0 0 1 0 0 0
POINTS 854
DATA ascii
-0.025118252 0.75400001 0.054202545 1.6960383e-38 301 199
-0.02379624 0.75400001 0.054202545 1.604202e-38 302 199
-0.022504034 0.755 0.054274432 1.5673239e-38 303 199
-0.021236373 0.75700003 0.054418206 1.5488846e-38 304 199
-0.0199617 0.759 0.054561976 1.5581043e-38 305 199
-0.01863092 0.759 0.054561976 1.5488493e-38 306 199
-0.017300138 0.759 0.054561976 1.5304102e-38 307 199
-0.016011439 0.76099998 0.05470575 1.5303749e-38 308 199
-0.01469644 0.76200002 0.054777641 1.5211553e-38 309 199
-0.013430533 0.76599997 0.055065181 1.5303386e-38 310 199
-0.012087479 0.76599997 0.055065181 1.5210831e-38 311 199
-0.010758453 0.76700002 0.055137072 1.4844926e-38 312 199
-0.0094136465 0.76700002 0.055137072 1.4844926e-38 313 199
-0.0080898795 0.76899999 0.055280842 1.5120434e-38 314 199
-0.0067415666 0.76899999 0.055280842 1.5120434e-38 315 199
-0.0053932532 0.76899999 0.055280842 1.5120436e-38 316 199
-0.0040554604 0.77100003 0.055424623 1.5212632e-38 317 199
-0.0027036399 0.77100003 0.055424623 1.5213354e-38 318 199
-0.0013553266 0.773 0.055568393 1.5213354e-38 319 199
0 0.773 0.055568393 1.5122238e-38 320 199
0.0013553266 0.773 0.055568393 1.5398465e-38 321 199
0.0027106532 0.773 0.055568393 1.5399191e-38 322 199
0.0040659797 0.773 0.055568393 1.5399191e-38 323 199
0.0054213065 0.773 0.055568393 1.5216601e-38 324 199
0.0067766332 0.773 0.055568393 1.5492829e-38 325 199
0.0081109209 0.77100003 0.055424623 1.5952012e-38 326 199
0.0094627403 0.77100003 0.055424623 1.6228597e-38 327 199
0.010786506 0.76899999 0.055280842 1.5771583e-38 328 199
0.012134819 0.76899999 0.055280842 1.5956333e-38 329 199
0.013483133 0.76899999 0.055280842 1.6232562e-38 330 199
0.014831445 0.76899999 0.055280842 1.6509507e-38 331 199
0.01613768 0.76700002 0.055137072 1.6694266e-38 332 199
0.017482487 0.76700002 0.055137072 1.7063047e-38 333 199
0.018827293 0.76700002 0.055137072 1.7248161e-38 334 199
0.020145798 0.76599997 0.055065181 1.7616944e-38 335 199
0.021488851 0.76599997 0.055065181 1.7434354e-38 336 199
0.022772292 0.764 0.054921411 1.7802777e-38 337 199
0.02404872 0.76200002 0.054777641 1.826196e-38 338 199
0.025351444 0.76099998 0.05470575 1.8354516e-38 339 199
0.026685731 0.76099998 0.05470575 1.8080087e-38 340 199
0.027946379 0.759 0.054561976 1.8357032e-38 341 199
0.029200014 0.75700003 0.054418206 1.8817289e-38 342 199
0.030446632 0.755 0.054274432 1.9185711e-38 343 199
0.031770397 0.755 0.054274432 2.0840178e-38 344 199
0.032962665 0.75199997 0.054058768 2.0471397e-38 345 199
0.034281172 0.75199997 0.054058768 2.0741846e-38 346 199
0.035599679 0.75199997 0.054058768 2.0096477e-38 347 199
-0.031644158 0.75199997 0.052740261 2.0651821e-38 296 200
-0.030325651 0.75199997 0.052740261 2.0006452e-38 297 200
-0.029007144 0.75199997 0.052740261 1.9087732e-38 298 200
-0.027762281 0.75400001 0.052880533 1.6875397e-38 299 200
-0.026440267 0.75400001 0.052880533 1.6412977e-38 300 200
-0.025118252 0.75400001 0.052880533 1.530627e-38 301 200
-0.02379624 0.75400001 0.052880533 1.558069e-38 302 200
-0.022504034 0.755 0.052950665 1.558069e-38 303 200
-0.021236373 0.75700003 0.053090934 1.5396297e-38 304 200
-0.0199617 0.759 0.053231198 1.5396297e-38 305 200
-0.018680012 0.76099998 0.053371463 1.5028238e-38 306 200
-0.017345725 0.76099998 0.053371463 1.4936042e-38 307 200
-0.01603248 0.76200002 0.053441599 1.4659461e-38 308 200
-0.014735013 0.764 0.053581864 1.4843494e-38 309 200
-0.013430533 0.76599997 0.053722132 1.4843494e-38 310 200
-0.01210326 0.76700002 0.053792264 1.4659461e-38 311 200
-0.010786506 0.76899999 0.053932533 1.4567265e-38 312 200
-0.0094381925 0.76899999 0.053932533 1.4659461e-38 313 200
-0.0080898795 0.76899999 0.053932533 1.4567628e-38 314 200
-0.0067415666 0.76899999 0.053932533 1.4659825e-38 315 200
-0.0054072798 0.77100003 0.054072797 1.4476869e-38 316 200
-0.0040554604 0.77100003 0.054072797 1.4753096e-38 317 200
-0.0027141599 0.77399999 0.054283198 1.4844926e-38 318 200
-0.0013570799 0.77399999 0.054283198 1.5028957e-38 319 200
0 0.77399999 0.054283198 1.4753449e-38 320 200
0.0013570799 0.77399999 0.054283198 1.493784e-38 321 200
0.0027141599 0.77399999 0.054283198 1.5305195e-38 322 200
0.0040712398 0.77399999 0.054283198 1.5305195e-38 323 200
0.0054283198 0.77399999 0.054283198 1.5122254e-38 324 200
0.0067853997 0.77399999 0.054283198 1.5306645e-38 325 200
0.0081319595 0.773 0.054213066 1.5582876e-38 326 200
0.0094872871 0.773 0.054213066 1.5582876e-38 327 200
0.010842613 0.773 0.054213066 1.5309882e-38 328 200
0.012197939 0.773 0.054213066 1.5494273e-38 329 200
0.013518199 0.77100003 0.054072797 1.58627e-38 330 200
0.01487002 0.77100003 0.054072797 1.6231841e-38 331 200
0.016179759 0.76899999 0.053932533 1.6141448e-38 332 200
0.017528072 0.76899999 0.053932533 1.6694621e-38 333 200
0.018876385 0.76899999 0.053932533 1.7063044e-38 334 200
0.020172099 0.76700002 0.053792264 1.7339991e-38 335 200
0.021516906 0.76700002 0.053792264 1.7432549e-38 336 200
0.022831906 0.76599997 0.053722132 1.7617299e-38 337 200
0.024111839 0.764 0.053581864 1.7893177e-38 338 200
0.02538476 0.76200002 0.053441599 1.8077569e-38 339 200
0.0267208 0.76200002 0.053441599 1.8171563e-38 340 200
0.028020019 0.76099998 0.053371463 1.8355953e-38 341 200
0.029277159 0.759 0.053231198 1.8815852e-38 342 200
0.030527288 0.75700003 0.053090934 1.8908048e-38 343 200
0.031854562 0.75700003 0.053090934 2.0103705e-38 344 200
0.032962665 0.75199997 0.052740261 2.0656878e-38 345 200
0.034281172 0.75199997 0.052740261 2.1020957e-38 346 200
0.035694357 0.75400001 0.052880533 2.0191196e-38 347 200
0.037016369 0.75400001 0.052880533 1.9910997e-38 348 200
-0.031644158 0.75199997 0.051421758 2.0466704e-38 296 201
-0.030325651 0.75199997 0.051421758 1.9452912e-38 297 201
-0.029007144 0.75199997 0.051421758 1.8164687e-38 298 201
-0.027688639 0.75199997 0.051421758 1.6044188e-38 299 201
-0.026440267 0.75400001 0.051558517 1.5308421e-38 300 201
-0.025118252 0.75400001 0.051558517 1.4755247e-38 301 201
-0.02379624 0.75400001 0.051558517 1.5762559e-38 302 201
-0.022504034 0.755 0.051626898 1.5578528e-38 303 201
-0.02129248 0.759 0.051900417 1.5118989e-38 304 201
-0.020014299 0.76099998 0.052037176 1.5118989e-38 305 201
-0.018680012 0.76099998 0.052037176 1.5026436e-38 306 201
-0.01736852 0.76200002 0.052105557 1.493424e-38 307 201
-0.016074561 0.764 0.052242316 1.4750206e-38 308 201
-0.014735013 0.764 0.052242316 1.4658011e-38 309 201
-0.013448066 0.76700002 0.052447457 1.4658011e-38 310 201
-0.012134819 0.76899999 0.052584216 1.4565815e-38 311 201
-0.010786506 0.76899999 0.052584216 1.4565815e-38 312 201
-0.0094627403 0.77100003 0.052720979 1.4565815e-38 313 201
-0.0081109209 0.77100003 0.052720979 1.4566537e-38 314 201
-0.0067590997 0.77100003 0.052720979 1.4566537e-38 315 201
-0.0054213065 0.773 0.052857738 1.4566181e-38 316 201
-0.0040659797 0.773 0.052857738 1.4658735e-38 317 201
-0.0027141599 0.77399999 0.052926116 1.4750928e-38 318 201
-0.0013570799 0.77399999 0.052926116 1.4658732e-38 319 201
0 0.77600002 0.053062879 1.4658732e-38 320 201
0.0013570799 0.77399999 0.052926116 1.4750928e-38 321 201
0.0027141599 0.77399999 0.052926116 1.4843491e-38 322 201
0.0040817601 0.77600002 0.053062879 1.4936045e-38 323 201
0.0054283198 0.77399999 0.052926116 1.5120086e-38 324 201
0.0067853997 0.77399999 0.052926116 1.5212282e-38 325 201
0.0081424797 0.77399999 0.052926116 1.5030053e-38 326 201
0.0094995592 0.77399999 0.052926116 1.5122248e-38 327 201
0.01085664 0.77399999 0.052926116 1.5031856e-38 328 201
0.01221372 0.77399999 0.052926116 1.5216249e-38 329 201
0.013553266 0.773 0.052857738 1.5401006e-38 330 201
0.014908593 0.773 0.052857738 1.5585396e-38 331 201
0.016221842 0.77100003 0.052720979 1.5679393e-38 332 201
0.01757366 0.77100003 0.052720979 1.5863785e-38 333 201
0.018925481 0.77100003 0.052720979 1.6141092e-38 334 201
0.0202247 0.76899999 0.052584216 1.660207e-38 335 201
0.021573013 0.76899999 0.052584216 1.7063047e-38 336 201
0.022861714 0.76700002 0.052447457 1.7247438e-38 337 201
0.024174958 0.76599997 0.052379075 1.7340001e-38 338 201
0.025451386 0.764 0.052242316 1.7709143e-38 339 201
0.0267208 0.76200002 0.052105557 1.7802061e-38 340 201
0.028020019 0.76099998 0.052037176 1.7986452e-38 341 201
0.029354304 0.76099998 0.052037176 1.826268e-38 342 201
0.030607941 0.759 0.051900417 1.844743e-38 343 201
0.031854562 0.75700003 0.051763661 1.9000598e-38 344 201
0.033094164 0.755 0.051626898 1.9461575e-38 345 201
0.034372345 0.75400001 0.051558517 2.1115323e-38 346 201
0.035694357 0.75400001 0.051558517 2.074618e-38 347 201
0.037016369 0.75400001 0.051558517 2.0096114e-38 348 201
0.038338386 0.75400001 0.051558517 1.9911362e-38 349 201
-0.032874998 0.75 0.049969997 2.0651101e-38 295 202
-0.031644158 0.75199997 0.050103247 2.0189041e-38 296 202
-0.030325651 0.75199997 0.050103247 1.8714271e-38 297 202
-0.029007144 0.75199997 0.050103247 1.7056545e-38 298 202
-0.027688639 0.75199997 0.050103247 1.567361e-38 299 202
-0.026440267 0.75400001 0.050236505 1.5672889e-38 300 202
-0.025118252 0.75400001 0.050236505 1.53963e-38 301 202
-0.023827799 0.755 0.050303131 1.5486692e-38 302 202
-0.022504034 0.755 0.050303131 1.5394497e-38 303 202
-0.021348584 0.76099998 0.050702889 1.5026792e-38 304 202
-0.0200406 0.76200002 0.050769519 1.4934596e-38 305 202
-0.01870456 0.76200002 0.050769519 1.4750209e-38 306 202
-0.017414106 0.764 0.050902773 1.4658014e-38 307 202
-0.016116638 0.76599997 0.051036026 1.4565815e-38 308 202
-0.014792874 0.76700002 0.051102653 1.4473619e-38 309 202
-0.013483133 0.76899999 0.051235907 1.4473619e-38 310 202
-0.01216638 0.77100003 0.05136916 1.4473619e-38 311 202
-0.01081456 0.77100003 0.05136916 1.4381422e-38 312 202
-0.0094872871 0.773 0.051502414 1.4381422e-38 313 202
-0.0081319595 0.773 0.051502414 1.4381067e-38 314 202
-0.0067766332 0.773 0.051502414 1.4381067e-38 315 202
-0.0054283198 0.77399999 0.051569037 1.4197757e-38 316 202
-0.0040712398 0.77399999 0.051569037 1.4289954e-38 317 202
-0.0027141599 0.77399999 0.051569037 1.4289951e-38 318 202
-0.0013605866 0.77600002 0.051702294 1.4289951e-38 319 202
0 0.778 0.051835544 1.4473619e-38 320 202
0.0013605866 0.77600002 0.051702294 1.4473619e-38 321 202
0.0027211732 0.77600002 0.051702294 1.465766e-38 322 202
0.0040817601 0.77600002 0.051702294 1.4933887e-38 323 202
0.0054423464 0.77600002 0.051702294 1.447508e-38 324 202
0.0068029333 0.77600002 0.051702294 1.4659831e-38 325 202
0.0081635201 0.77600002 0.051702294 1.4752743e-38 326 202
0.009524107 0.77600002 0.051702294 1.4844938e-38 327 202
0.01085664 0.77399999 0.051569037 1.5030053e-38 328 202
0.01221372 0.77399999 0.051569037 1.5030053e-38 329 202
0.013570799 0.77399999 0.051569037 1.5122617e-38 330 202
0.014927879 0.77399999 0.051569037 1.5214812e-38 331 202
0.016263919 0.773 0.051502414 1.4941826e-38 332 202
0.017619247 0.773 0.051502414 1.5494999e-38 333 202
0.018925481 0.77100003 0.05136916 1.5863785e-38 334 202
0.020277301 0.77100003 0.05136916 1.6232208e-38 335 202
0.021573013 0.76899999 0.051235907 1.660135e-38 336 202
0.022921326 0.76899999 0.051235907 1.6969773e-38 337 202
0.024206521 0.76700002 0.051102653 1.7062694e-38 338 202
0.025518013 0.76599997 0.051036026 1.7431836e-38 339 202
0.0267208 0.76200002 0.050769519 1.724925e-38 340 202
0.028056841 0.76200002 0.050769519 1.7710228e-38 341 202
0.029354304 0.76099998 0.050702889 1.8169764e-38 342 202
0.030607941 0.759 0.050569639 1.8354516e-38 343 202
0.031854562 0.75700003 0.050436385 1.8539626e-38 344 202
0.033094164 0.755 0.050303131 1.9000604e-38 345 202
0.034417931 0.755 0.050303131 2.0656513e-38 346 202
0.035694357 0.75400001 0.050236505 2.0656513e-38 347 202
0.037016369 0.75400001 0.050236505 2.0466701e-38 348 202
0.038338386 0.75400001 0.050236505 1.9637301e-38 349 202
0.039660402 0.75400001 0.050236505 2.0094309e-38 350 202
-0.034189999 0.75 0.048655 2.0926606e-38 294 203
-0.032874998 0.75 0.048655 2.0281238e-38 295 203
-0.03156 0.75 0.048655 1.9175968e-38 296 203
-0.030325651 0.75199997 0.048784744 1.7424251e-38 297 203
-0.029007144 0.75199997 0.048784744 1.604167e-38 298 203
-0.027688639 0.75199997 0.048784744 1.5488496e-38 299 203
-0.026440267 0.75400001 0.048914492 1.5671805e-38 300 203
-0.025118252 0.75400001 0.048914492 1.5211187e-38 301 203
-0.023827799 0.755 0.048979364 1.5210466e-38 302 203
-0.022563647 0.75700003 0.049109112 1.5118269e-38 303 203
-0.021348584 0.76099998 0.049368605 1.5026073e-38 304 203
-0.020093199 0.764 0.049563225 1.4841682e-38 305 203
-0.018753653 0.764 0.049563225 1.4749127e-38 306 203
-0.017482487 0.76700002 0.049757849 1.4749127e-38 307 203
-0.01613768 0.76700002 0.049757849 1.4565452e-38 308 203
-0.01487002 0.77100003 0.050017338 1.4472896e-38 309 203
-0.013518199 0.77100003 0.050017338 1.4564013e-38 310 203
-0.012197939 0.773 0.050147086 1.4471817e-38 311 203
-0.010842613 0.773 0.050147086 1.4287786e-38 312 203
-0.0094872871 0.773 0.050147086 1.4195591e-38 313 203
-0.0081319595 0.773 0.050147086 1.4287786e-38 314 203
-0.0067853997 0.77399999 0.050211959 1.4195591e-38 315 203
-0.0054423464 0.77600002 0.050341707 1.4103758e-38 316 203
-0.0040817601 0.77600002 0.050341707 1.4103758e-38 317 203
-0.0027211732 0.77600002 0.050341707 1.3920448e-38 318 203
-0.0013640933 0.778 0.050471451 1.4012644e-38 319 203
0 0.77999997 0.050601196 1.4195956e-38 320 203
0.0013640933 0.778 0.050471451 1.4288152e-38 321 203
0.0027281865 0.778 0.050471451 1.4104837e-38 322 203
0.0040922803 0.778 0.050471451 1.4289227e-38 323 203
0.0054563731 0.778 0.050471451 1.4198477e-38 324 203
0.0068029333 0.77600002 0.050341707 1.4382869e-38 325 203
0.0081635201 0.77600002 0.050341707 1.4475789e-38 326 203
0.009524107 0.77600002 0.050341707 1.4567984e-38 327 203
0.010884693 0.77600002 0.050341707 1.4844219e-38 328 203
0.01224528 0.77600002 0.050341707 1.5028609e-38 329 203
0.013605867 0.77600002 0.050341707 1.4937856e-38 330 203
0.014927879 0.77399999 0.050211959 1.5030053e-38 331 203
0.016284959 0.77399999 0.050211959 1.4940021e-38 332 203
0.017619247 0.773 0.050147086 1.5216968e-38 333 203
0.018974574 0.773 0.050147086 1.5585396e-38 334 203
0.020277301 0.77100003 0.050017338 1.5861984e-38 335 203
0.021573013 0.76899999 0.04988759 1.6047097e-38 336 203
0.022921326 0.76899999 0.04988759 1.6508075e-38 337 203
0.024206521 0.76700002 0.049757849 1.6694268e-38 338 203
0.025551327 0.76700002 0.049757849 1.7062691e-38 339 203
0.026790932 0.764 0.049563225 1.7247808e-38 340 203
0.028056841 0.76200002 0.049433477 1.761659e-38 341 203
0.029354304 0.76099998 0.049368605 1.7892821e-38 342 203
0.030688593 0.76099998 0.049368605 1.8077571e-38 343 203
0.031938717 0.759 0.049238857 1.8170486e-38 344 203
0.033181835 0.75700003 0.049109112 1.853927e-38 345 203
0.034417931 0.755 0.048979364 1.9553408e-38 346 203
0.035694357 0.75400001 0.048914492 1.9829636e-38 347 203
0.037016369 0.75400001 0.048914492 2.0653616e-38 348 203
0.038338386 0.75400001 0.048914492 1.973202e-38 349 203
0.039660402 0.75400001 0.048914492 1.9818445e-38 350 203
-0.03545766 0.74900001 0.047276881 2.1018806e-38 293 204
-0.034189999 0.75 0.047339998 2.0650379e-38 294 204
-0.032874998 0.75 0.047339998 1.9635868e-38 295 204
-0.03156 0.75 0.047339998 1.7885229e-38 296 204
-0.030244999 0.75 0.047339998 1.6502295e-38 297 204
-0.029007144 0.75199997 0.047466237 1.5855482e-38 298 204
-0.027688639 0.75199997 0.047466237 1.5578894e-38 299 204
-0.02637013 0.75199997 0.047466237 1.5027872e-38 300 204
-0.025118252 0.75400001 0.04759248 1.4750925e-38 301 204
-0.023827799 0.755 0.047655597 1.5026792e-38 302 204
-0.02262326 0.759 0.047908079 1.4750206e-38 303 204
-0.02137664 0.76200002 0.048097439 1.4840963e-38 304 204
-0.020093199 0.764 0.048223678 1.4748408e-38 305 204
-0.018802745 0.76599997 0.048349917 1.4656211e-38 306 204
-0.017528072 0.76899999 0.048539277 1.4564016e-38 307 204
-0.016221842 0.77100003 0.04866552 1.4381057e-38 308 204
-0.014908593 0.773 0.048791755 1.4288502e-38 309 204
-0.013553266 0.773 0.048791755 1.4379256e-38 310 204
-0.01221372 0.77399999 0.04885488 1.4103028e-38 311 204
-0.01085664 0.77399999 0.04885488 1.428706e-38 312 204
-0.0094995592 0.77399999 0.04885488 1.4103028e-38 313 204
-0.0081424797 0.77399999 0.04885488 1.4102672e-38 314 204
-0.0068029333 0.77600002 0.048981119 1.4010476e-38 315 204
-0.0054563731 0.778 0.049107358 1.3919e-38 316 204
-0.0041027996 0.77999997 0.049233593 1.3919e-38 317 204
-0.0027351999 0.77999997 0.049233593 1.3643139e-38 318 204
-0.0013675999 0.77999997 0.049233593 1.3735334e-38 319 204
0 0.77999997 0.049233593 1.3735334e-38 320 204
0.0013675999 0.77999997 0.049233593 1.382753e-38 321 204
0.0027351999 0.77999997 0.049233593 1.373605e-38 322 204
0.0041027996 0.77999997 0.049233593 1.3920802e-38 323 204
0.0054563731 0.778 0.049107358 1.3554184e-38 324 204
0.0068204664 0.778 0.049107358 1.3738574e-38 325 204
0.0081845606 0.778 0.049107358 1.4381069e-38 326 204
0.0095486529 0.778 0.049107358 1.4473266e-38 327 204
0.010912746 0.778 0.049107358 1.4382871e-38 328 204
0.012276839 0.778 0.049107358 1.4475067e-38 329 204
0.013640933 0.778 0.049107358 1.4659825e-38 330 204
0.014966453 0.77600002 0.048981119 1.475238e-38 331 204
0.01632704 0.77600002 0.048981119 1.484566e-38 332 204
0.01764204 0.77399999 0.04885488 1.5030053e-38 333 204
0.018999118 0.77399999 0.04885488 1.5215168e-38 334 204
0.020277301 0.77100003 0.04866552 1.5583952e-38 335 204
0.021573013 0.76899999 0.048539277 1.5586473e-38 336 204
0.022921326 0.76899999 0.048539277 1.604745e-38 337 204
0.024206521 0.76700002 0.048413042 1.6232208e-38 338 204
0.025551327 0.76700002 0.048413042 1.660135e-38 339 204
0.026861066 0.76599997 0.048349917 1.7061972e-38 340 204
0.028130481 0.764 0.048223678 1.752295e-38 341 204
0.029392879 0.76200002 0.048097439 1.7524395e-38 342 204
0.030688593 0.76099998 0.048034318 1.7893177e-38 343 204
0.032022879 0.76099998 0.048034318 1.7894256e-38 344 204
0.033269498 0.759 0.047908079 1.826268e-38 345 204
0.034417931 0.755 0.047655597 1.8816206e-38 346 204
0.035741698 0.755 0.047655597 1.9277544e-38 347 204
0.036918186 0.75199997 0.047466237 2.0562149e-38 348 204
0.038236689 0.75199997 0.047466237 2.0100811e-38 349 204
0.039660402 0.75400001 0.04759248 1.972877e-38 350 204
0.040982414 0.75400001 0.04759248 1.9267792e-38 351 204
-0.03545766 0.74900001 0.045963634 2.092661e-38 293 205
-0.034144413 0.74900001 0.045963634 2.0097928e-38 294 205
-0.032831166 0.74900001 0.045963634 1.8899385e-38 295 205
-0.031517919 0.74900001 0.045963634 1.6595567e-38 296 205
-0.030244999 0.75 0.046024997 1.5581415e-38 297 205
-0.029007144 0.75199997 0.04614773 1.5578891e-38 298 205
-0.027688639 0.75199997 0.04614773 1.53945e-38 299 205
-0.02637013 0.75199997 0.04614773 1.493424e-38 300 205
-0.025118252 0.75400001 0.046270464 1.4750209e-38 301 205
-0.02389092 0.75700003 0.046454567 1.4658014e-38 302 205
-0.022682872 0.76099998 0.046700031 1.4565818e-38 303 205
-0.021432746 0.764 0.046884131 1.4472899e-38 304 205
-0.020145798 0.76599997 0.047006864 1.4380704e-38 305 205
-0.018827293 0.76700002 0.047068235 1.447182e-38 306 205
-0.01757366 0.77100003 0.047313701 1.4287789e-38 307 205
-0.016221842 0.77100003 0.047313701 1.419631e-38 308 205
-0.014927879 0.77399999 0.047497798 1.3920083e-38 309 205
-0.013605867 0.77600002 0.047620531 1.4102672e-38 310 205
-0.01224528 0.77600002 0.047620531 1.4010476e-38 311 205
-0.010884693 0.77600002 0.047620531 1.3826804e-38 312 205
-0.009524107 0.77600002 0.047620531 1.3642773e-38 313 205
-0.0081845606 0.778 0.047743265 1.3733889e-38 314 205
-0.0068379994 0.77999997 0.047865998 1.3733889e-38 315 205
-0.0054774131 0.78100002 0.047927368 1.3733533e-38 316 205
-0.0041080597 0.78100002 0.047927368 1.3733533e-38 317 205
-0.0027387065 0.78100002 0.047927368 1.345767e-38 318 205
-0.0013693533 0.78100002 0.047927368 1.3550224e-38 319 205
0 0.78100002 0.047927368 1.3549871e-38 320 205
0.0013693533 0.78100002 0.047927368 1.3642067e-38 321 205
0.0027387065 0.78100002 0.047927368 1.3458391e-38 322 205
0.0041080597 0.78100002 0.047927368 1.3642783e-38 323 205
0.0054703997 0.77999997 0.047865998 1.3552388e-38 324 205
0.0068379994 0.77999997 0.047865998 1.3644585e-38 325 205
0.0082055992 0.77999997 0.047865998 1.4195606e-38 326 205
0.0095731998 0.77999997 0.047865998 1.4287802e-38 327 205
0.010954826 0.78100002 0.047927368 1.4105205e-38 328 205
0.01232418 0.78100002 0.047927368 1.4289957e-38 329 205
0.013675999 0.77999997 0.047865998 1.4199203e-38 330 205
0.0150436 0.77999997 0.047865998 1.4383234e-38 331 205
0.016369121 0.778 0.047743265 1.4659828e-38 332 205
0.017733213 0.778 0.047743265 1.5028609e-38 333 205
0.019048214 0.77600002 0.047620531 1.4937856e-38 334 205
0.020356199 0.77399999 0.047497798 1.5214803e-38 335 205
0.021685226 0.773 0.047436431 1.5492476e-38 336 205
0.022921326 0.76899999 0.047190964 1.5861617e-38 337 205
0.024269639 0.76899999 0.047190964 1.604745e-38 338 205
0.025551327 0.76700002 0.047068235 1.6324038e-38 339 205
0.026861066 0.76599997 0.047006864 1.6601347e-38 340 205
0.028130481 0.764 0.046884131 1.7062325e-38 341 205
0.029392879 0.76200002 0.046761397 1.7615146e-38 342 205
0.030728921 0.76200002 0.046761397 1.7892091e-38 343 205
0.032022879 0.76099998 0.046700031 1.7893174e-38 344 205
0.033269498 0.759 0.046577301 1.8077566e-38 345 205
0.034417931 0.755 0.04633183 1.8447427e-38 346 205
0.035741698 0.755 0.04633183 1.8908404e-38 347 205
0.036819998 0.75 0.046024997 2.0471397e-38 348 205
0.038084153 0.74900001 0.045963634 2.0102613e-38 349 205
0.039292198 0.74699998 0.045840897 1.9730571e-38 350 205
0.040601939 0.74699998 0.045840897 1.9085202e-38 351 205
-0.036623627 0.74599999 0.044471547 2.1018806e-38 292 206
-0.03531564 0.74599999 0.044471547 2.0834413e-38 293 206
-0.034007654 0.74599999 0.044471547 1.9084851e-38 294 206
-0.032743499 0.74699998 0.044531155 1.8162536e-38 295 206
-0.031433757 0.74699998 0.044531155 1.5858718e-38 296 206
-0.030204674 0.74900001 0.044650383 1.5121152e-38 297 206
-0.028891427 0.74900001 0.044650383 1.5486692e-38 298 206
-0.027688639 0.75199997 0.044829223 1.5026073e-38 299 206
-0.02637013 0.75199997 0.044829223 1.511719e-38 300 206
-0.025151566 0.755 0.045008067 1.4933158e-38 301 206
-0.023954039 0.759 0.045246519 1.4565096e-38 302 206
-0.022682872 0.76099998 0.045365743 1.4472899e-38 303 206
-0.021488851 0.76599997 0.045663811 1.4471817e-38 304 206
-0.020172099 0.76700002 0.045723427 1.4287786e-38 305 206
-0.018876385 0.76899999 0.045842651 1.4470736e-38 306 206
-0.01764204 0.77399999 0.046140719 1.4285984e-38 307 206
-0.01632704 0.77600002 0.046259947 1.4102672e-38 308 206
-0.015005025 0.778 0.046379171 1.4010476e-38 309 206
-0.013675999 0.77999997 0.046498396 1.364277e-38 310 206
-0.012308398 0.77999997 0.046498396 1.364277e-38 311 206
-0.010940799 0.77999997 0.046498396 1.3733165e-38 312 206
-0.0095854728 0.78100002 0.046558015 1.3733165e-38 313 206
-0.0082371598 0.78299999 0.046677239 1.3640968e-38 314 206
-0.0068642995 0.78299999 0.046677239 1.3640968e-38 315 206
-0.0054914397 0.78299999 0.046677239 1.3732085e-38 316 206
-0.0041185799 0.78299999 0.046677239 1.3732085e-38 317 206
-0.0027457199 0.78299999 0.046677239 1.3548772e-38 318 206
-0.0013728599 0.78299999 0.046677239 1.3548772e-38 319 206
0 0.78299999 0.046677239 1.3548772e-38 320 206
0.0013728599 0.78299999 0.046677239 1.3548772e-38 321 206
0.0027457199 0.78299999 0.046677239 1.3548775e-38 322 206
0.0041185799 0.78299999 0.046677239 1.3640971e-38 323 206
0.0054774131 0.78100002 0.046558015 1.3641691e-38 324 206
0.0068467669 0.78100002 0.046558015 1.3826082e-38 325 206
0.0082161194 0.78100002 0.046558015 1.3642417e-38 326 206
0.0095854728 0.78100002 0.046558015 1.3826448e-38 327 206
0.010982879 0.78299999 0.046677239 1.382825e-38 328 206
0.01232418 0.78100002 0.046558015 1.382825e-38 329 206
0.013693534 0.78100002 0.046558015 1.4013363e-38 330 206
0.0150436 0.77999997 0.046498396 1.4197754e-38 331 206
0.016411198 0.77999997 0.046498396 1.4107008e-38 332 206
0.017778799 0.77999997 0.046498396 1.4383234e-38 333 206
0.019097306 0.778 0.046379171 1.4385039e-38 334 206
0.0204088 0.77600002 0.046259947 1.4661626e-38 335 206
0.021713279 0.77399999 0.046140719 1.5030055e-38 336 206
0.02298094 0.77100003 0.045961879 1.5306642e-38 337 206
0.02433276 0.77100003 0.045961879 1.5401359e-38 338 206
0.025617953 0.76899999 0.045842651 1.5862337e-38 339 206
0.026896132 0.76700002 0.045723427 1.6139646e-38 340 206
0.028204117 0.76599997 0.045663811 1.6600624e-38 341 206
0.029470026 0.764 0.045544583 1.7153089e-38 342 206
0.030728921 0.76200002 0.045425359 1.7522231e-38 343 206
0.032022879 0.76099998 0.045365743 1.7431836e-38 344 206
0.033181835 0.75700003 0.045127295 1.7800259e-38 345 206
0.034417931 0.755 0.045008067 1.7986449e-38 346 206
0.035694357 0.75400001 0.044948451 1.8447427e-38 347 206
0.036819998 0.75 0.044709999 1.9827471e-38 348 206
0.038084153 0.74900001 0.044650383 1.9919666e-38 349 206
0.039292198 0.74699998 0.044531155 2.0375585e-38 350 206
0.040601939 0.74699998 0.044531155 1.91774e-38 351 206
0.041911677 0.74699998 0.044531155 2.0001394e-38 352 206
-0.036623627 0.74599999 0.04316356 2.0651098e-38 292 207
-0.03531564 0.74599999 0.04316356 2.0558902e-38 293 207
-0.034007654 0.74599999 0.04316356 1.8439476e-38 294 207
-0.032743499 0.74699998 0.043221418 1.7425324e-38 295 207
-0.031433757 0.74699998 0.043221418 1.5581765e-38 296 207
-0.030204674 0.74900001 0.04333714 1.5212982e-38 297 207
-0.028891427 0.74900001 0.04333714 1.5028588e-38 298 207
-0.027762281 0.75400001 0.043626439 1.4660165e-38 299 207
-0.026440267 0.75400001 0.043626439 1.4841682e-38 300 207
-0.025218192 0.75700003 0.043800019 1.4565096e-38 301 207
-0.024017159 0.76099998 0.044031456 1.4472899e-38 302 207
-0.022772292 0.764 0.04420504 1.4380704e-38 303 207
-0.021516906 0.76700002 0.04437862 1.419631e-38 304 207
-0.0202247 0.76899999 0.044494338 1.3920083e-38 305 207
-0.018925481 0.77100003 0.044610061 1.4010842e-38 306 207
-0.017687626 0.77600002 0.044899363 1.3918646e-38 307 207
-0.01632704 0.77600002 0.044899363 1.364242e-38 308 207
-0.0150436 0.77999997 0.045130797 1.3550224e-38 309 207
-0.013693534 0.78100002 0.045188658 1.3550218e-38 310 207
-0.01232418 0.78100002 0.045188658 1.3458023e-38 311 207
-0.010982879 0.78299999 0.04530438 1.3273627e-38 312 207
-0.0096100196 0.78299999 0.04530438 1.3273627e-38 313 207
-0.0082582003 0.78500003 0.045420099 1.3273264e-38 314 207
-0.0068818335 0.78500003 0.045420099 1.3273264e-38 315 207
-0.0055054668 0.78500003 0.045420099 1.3456574e-38 316 207
-0.0041291001 0.78500003 0.045420099 1.3456574e-38 317 207
-0.0027527334 0.78500003 0.045420099 1.3181066e-38 318 207
-0.0013763667 0.78500003 0.045420099 1.3273262e-38 319 207
0 0.78500003 0.045420099 1.318071e-38 320 207
0.0013728599 0.78299999 0.04530438 1.318071e-38 321 207
0.0027457199 0.78299999 0.04530438 1.3364025e-38 322 207
0.0041185799 0.78299999 0.04530438 1.3456221e-38 323 207
0.0054914397 0.78299999 0.04530438 1.327363e-38 324 207
0.0068642995 0.78299999 0.04530438 1.327363e-38 325 207
0.0082371598 0.78299999 0.04530438 1.3641341e-38 326 207
0.0096100196 0.78299999 0.04530438 1.3641341e-38 327 207
0.010982879 0.78299999 0.04530438 1.2999215e-38 328 207
0.012355739 0.78299999 0.04530438 1.3275442e-38 329 207
0.013728599 0.78299999 0.04530438 1.382753e-38 330 207
0.015062887 0.78100002 0.045188658 1.4103758e-38 331 207
0.016432239 0.78100002 0.045188658 1.3829695e-38 332 207
0.017801592 0.78100002 0.045188658 1.3922249e-38 333 207
0.019170946 0.78100002 0.045188658 1.4015178e-38 334 207
0.020513998 0.77999997 0.045130797 1.4292123e-38 335 207
0.021769386 0.77600002 0.044899363 1.4476163e-38 336 207
0.023129974 0.77600002 0.044899363 1.493714e-38 337 207
0.02442744 0.77399999 0.044783637 1.4940021e-38 338 207
0.025617953 0.76899999 0.044494338 1.5309163e-38 339 207
0.026966266 0.76899999 0.044494338 1.5769786e-38 340 207
0.028204117 0.76599997 0.044320758 1.6230762e-38 341 207
0.029470026 0.764 0.04420504 1.6599915e-38 342 207
0.030728921 0.76200002 0.044089317 1.7153089e-38 343 207
0.032022879 0.76099998 0.044031456 1.7247086e-38 344 207
0.033181835 0.75700003 0.043800019 1.7524032e-38 345 207
0.034417931 0.755 0.043684296 1.7525467e-38 346 207
0.035694357 0.75400001 0.043626439 1.7894609e-38 347 207
0.036918186 0.75199997 0.04351072 1.8814765e-38 348 207
0.038084153 0.74900001 0.04333714 1.9460134e-38 349 207
0.0393974 0.74900001 0.04333714 2.0745093e-38 350 207
0.040601939 0.74699998 0.043221418 1.9454354e-38 351 207
0.041911677 0.74699998 0.043221418 1.9633691e-38 352 207
0.043221418 0.74699998 0.043221418 2.0002113e-38 353 207
-0.036525439 0.74400002 0.04174336 2.0651098e-38 292 208
-0.035220962 0.74400002 0.04174336 2.0282317e-38 293 208
-0.033916477 0.74400002 0.04174336 1.8070338e-38 294 208
-0.032699663 0.74599999 0.04185557 1.6872153e-38 295 208
-0.031433757 0.74699998 0.041911677 1.5211906e-38 296 208
-0.030124018 0.74699998 0.041911677 1.5027875e-38 297 208
-0.028814279 0.74699998 0.041911677 1.5118269e-38 298 208
-0.027762281 0.75400001 0.042304426 1.4841682e-38 299 208
-0.026440267 0.75400001 0.042304426 1.4472899e-38 300 208
-0.025451386 0.764 0.042865492 1.4380704e-38 301 208
-0.024111839 0.764 0.042865492 1.4287783e-38 302 208
-0.022831906 0.76599997 0.042977702 1.4287783e-38 303 208
-0.021573013 0.76899999 0.043146025 1.4011195e-38 304 208
-0.0203299 0.773 0.043370452 1.3826804e-38 305 208
-0.018999118 0.77399999 0.043426558 1.4009041e-38 306 208
-0.017733213 0.778 0.043650985 1.382501e-38 307 208
-0.016411198 0.77999997 0.043763198 1.3640615e-38 308 208
-0.015062887 0.78100002 0.043819305 1.3548419e-38 309 208
-0.013728599 0.78299999 0.043931518 1.3456577e-38 310 208
-0.012355739 0.78299999 0.043931518 1.3456577e-38 311 208
-0.011010934 0.78500003 0.044043735 1.3364375e-38 312 208
-0.0096345674 0.78500003 0.044043735 1.3364375e-38 313 208
-0.0082792398 0.787 0.044155944 1.3364731e-38 314 208
-0.0069168997 0.78899997 0.044268157 1.3364731e-38 315 208
-0.0055335197 0.78899997 0.044268157 1.3364729e-38 316 208
-0.0041501396 0.78899997 0.044268157 1.3364729e-38 317 208
-0.0027667598 0.78899997 0.044268157 1.3180697e-38 318 208
-0.0013798733 0.787 0.044155944 1.3180697e-38 319 208
0 0.787 0.044155944 1.3271817e-38 320 208
0.0013798733 0.787 0.044155944 1.3271817e-38 321 208
0.0027597465 0.787 0.044155944 1.3271817e-38 322 208
0.0041396199 0.787 0.044155944 1.3364012e-38 323 208
0.0055335197 0.78899997 0.044268157 1.31807e-38 324 208
0.0069168997 0.78899997 0.044268157 1.31807e-38 325 208
0.0083002793 0.78899997 0.044268157 1.3364731e-38 326 208
0.0096345674 0.78500003 0.044043735 1.3364731e-38 327 208
0.011010934 0.78500003 0.044043735 1.3181429e-38 328 208
0.0123873 0.78500003 0.044043735 1.3273983e-38 329 208
0.013728599 0.78299999 0.043931518 1.3641338e-38 330 208
0.01510146 0.78299999 0.043931518 1.3733533e-38 331 208
0.01647432 0.78299999 0.043931518 1.3643501e-38 332 208
0.017847179 0.78299999 0.043931518 1.3828253e-38 333 208
0.019170946 0.78100002 0.043819305 1.38297e-38 334 208
0.020540299 0.78100002 0.043819305 1.4198124e-38 335 208
0.021881599 0.77999997 0.043763198 1.419885e-38 336 208
0.023189586 0.778 0.043650985 1.4659828e-38 337 208
0.024490559 0.77600002 0.043538772 1.4386481e-38 338 208
0.025784519 0.77399999 0.043426558 1.4847459e-38 339 208
0.027106533 0.773 0.043370452 1.5216249e-38 340 208
0.02824094 0.76700002 0.043033812 1.5677226e-38 341 208
0.029470026 0.764 0.042865492 1.6047094e-38 342 208
0.030728921 0.76200002 0.042753279 1.6600268e-38 343 208
0.032022879 0.76099998 0.042697169 1.7061972e-38 344 208
0.033181835 0.75700003 0.042472746 1.7430754e-38 345 208
0.034417931 0.755 0.042360533 1.7431836e-38 346 208
0.035694357 0.75400001 0.042304426 1.8076847e-38 347 208
0.036918186 0.75199997 0.04219221 1.8262313e-38 348 208
0.038084153 0.74900001 0.042023893 1.9276465e-38 349 208
0.0393974 0.74900001 0.042023893 2.1298988e-38 350 208
0.040601939 0.74699998 0.041911677 1.9915695e-38 351 208
0.041911677 0.74699998 0.041911677 1.9725887e-38 352 208
0.043221418 0.74699998 0.041911677 2.0094309e-38 353 208
-0.037829921 0.74400002 0.040438879 2.083441e-38 291 209
-0.036525439 0.74400002 0.040438879 2.0466707e-38 292 209
-0.035220962 0.74400002 0.040438879 2.0097926e-38 293 209
-0.033916477 0.74400002 0.040438879 1.7424968e-38 294 209
-0.032699663 0.74599999 0.040547583 1.613423e-38 295 209
-0.031391677 0.74599999 0.040547583 1.5211187e-38 296 209
-0.03008369 0.74599999 0.040547583 1.5026436e-38 297 209
-0.028775707 0.74599999 0.040547583 1.511719e-38 298 209
-0.027799098 0.755 0.041036766 1.4748408e-38 299 209
-0.026475333 0.755 0.041036766 1.4656567e-38 300 209
-0.025518013 0.76599997 0.041634649 1.4287786e-38 301 209
-0.024174958 0.76599997 0.041634649 1.4011195e-38 302 209
-0.022831906 0.76599997 0.041634649 1.3919e-38 303 209
-0.021629119 0.77100003 0.04190642 1.3918278e-38 304 209
-0.020356199 0.77399999 0.042069476 1.3733887e-38 305 209
-0.019048214 0.77600002 0.042178184 1.3640615e-38 306 209
-0.017801592 0.78100002 0.042449951 1.3640615e-38 307 209
-0.016432239 0.78100002 0.042449951 1.3548775e-38 308 209
-0.01510146 0.78299999 0.042558655 1.3364025e-38 309 209
-0.013763667 0.78500003 0.042667367 1.3363657e-38 310 209
-0.0123873 0.78500003 0.042667367 1.3363657e-38 311 209
-0.011038986 0.787 0.042776071 1.31807e-38 312 209
-0.0096836593 0.78899997 0.042884778 1.31807e-38 313 209
-0.0083002793 0.78899997 0.042884778 1.3180697e-38 314 209
-0.0069256667 0.79000002 0.04293913 1.3180697e-38 315 209
-0.0055405335 0.79000002 0.04293913 1.3271814e-38 316 209
-0.0041554002 0.79000002 0.04293913 1.3271814e-38 317 209
-0.0027702667 0.79000002 0.04293913 1.3271814e-38 318 209
-0.0013851334 0.79000002 0.04293913 1.3179617e-38 319 209
0 0.79000002 0.04293913 1.317962e-38 320 209
0.0013851334 0.79000002 0.04293913 1.317962e-38 321 209
0.0027702667 0.79000002 0.04293913 1.3271817e-38 322 209
0.0041501396 0.78899997 0.042884778 1.3271817e-38 323 209
0.0055335197 0.78899997 0.042884778 1.2995949e-38 324 209
0.0069168997 0.78899997 0.042884778 1.3088505e-38 325 209
0.0083002793 0.78899997 0.042884778 1.336401e-38 326 209
0.0096345674 0.78500003 0.042667367 1.3271814e-38 327 209
0.011010934 0.78500003 0.042667367 1.3180344e-38 328 209
0.0123873 0.78500003 0.042667367 1.3364375e-38 329 209
0.013763667 0.78500003 0.042667367 1.3272911e-38 330 209
0.015140033 0.78500003 0.042667367 1.3365107e-38 331 209
0.016516401 0.78500003 0.042667367 1.3549868e-38 332 209
0.017847179 0.78299999 0.042558655 1.3826095e-38 333 209
0.019220039 0.78299999 0.042558655 1.3552388e-38 334 209
0.0205929 0.78299999 0.042558655 1.3920811e-38 335 209
0.021909652 0.78100002 0.042449951 1.3921896e-38 336 209
0.023249198 0.77999997 0.042395595 1.429032e-38 337 209
0.024553679 0.778 0.042286891 1.4292839e-38 338 209
0.025851147 0.77600002 0.042178184 1.4569428e-38 339 209
0.027141599 0.77399999 0.042069476 1.484674e-38 340 209
0.028314579 0.76899999 0.041797712 1.5307717e-38 341 209
0.029547172 0.76599997 0.041634649 1.5126933e-38 342 209
0.030728921 0.76200002 0.041417241 1.5772302e-38 343 209
0.032022879 0.76099998 0.041362885 1.6417321e-38 344 209
0.033269498 0.759 0.041254178 1.6694268e-38 345 209
0.034417931 0.755 0.041036766 1.6971221e-38 346 209
0.035741698 0.755 0.041036766 1.761659e-38 347 209
0.036918186 0.75199997 0.040873703 1.7802058e-38 348 209
0.038084153 0.74900001 0.040710647 1.9000601e-38 349 209
0.0393974 0.74900001 0.040710647 2.1207519e-38 350 209
0.040601939 0.74699998 0.040601939 2.0100811e-38 351 209
0.041911677 0.74699998 0.040601939 1.9910999e-38 352 209
0.043221418 0.74699998 0.040601939 1.9726249e-38 353 209
-0.037829921 0.74400002 0.039134398 2.083441e-38 291 210
-0.036525439 0.74400002 0.039134398 2.0282317e-38 292 210
-0.035220962 0.74400002 0.039134398 1.9913533e-38 293 210
-0.033916477 0.74400002 0.039134398 1.6595567e-38 294 210
-0.032699663 0.74599999 0.039239597 1.5581415e-38 295 210
-0.031391677 0.74599999 0.039239597 1.5118992e-38 296 210
-0.03008369 0.74599999 0.039239597 1.5026436e-38 297 210
-0.028775707 0.74599999 0.039239597 1.4749483e-38 298 210
-0.027467718 0.74599999 0.039239597 1.4380701e-38 299 210
-0.027106533 0.773 0.0406598 1.4471454e-38 300 210
-0.025751207 0.773 0.0406598 1.4286704e-38 301 210
-0.024206521 0.76700002 0.040344197 1.4101946e-38 302 210
-0.022861714 0.76700002 0.040344197 1.400975e-38 303 210
-0.021713279 0.77399999 0.040712398 1.3825361e-38 304 210
-0.0204088 0.77600002 0.0408176 1.3640968e-38 305 210
-0.019170946 0.78100002 0.041080598 1.3548056e-38 306 210
-0.017847179 0.78299999 0.0411858 1.3548056e-38 307 210
-0.016516401 0.78500003 0.041291002 1.3548051e-38 308 210
-0.015178605 0.787 0.041396201 1.3363659e-38 309 210
-0.013798732 0.787 0.041396201 1.3363294e-38 310 210
-0.01241886 0.787 0.041396201 1.3271097e-38 311 210
-0.011067039 0.78899997 0.041501399 1.3271097e-38 312 210
-0.0096959332 0.79000002 0.041554 1.3271097e-38 313 210
-0.0083318399 0.792 0.041659199 1.3271097e-38 314 210
-0.0069431998 0.792 0.041659199 1.3271097e-38 315 210
-0.0055685868 0.79400003 0.041764401 1.3179617e-38 316 210
-0.0041764397 0.79400003 0.041764401 1.3087421e-38 317 210
-0.0027842934 0.79400003 0.041764401 1.3087419e-38 318 210
-0.0013921467 0.79400003 0.041764401 1.3087419e-38 319 210
0 0.792 0.041659199 1.3087421e-38 320 210
0.0013886399 0.792 0.041659199 1.3087421e-38 321 210
0.0027842934 0.79400003 0.041764401 1.3087065e-38 322 210
0.00416592 0.792 0.041659199 1.3087065e-38 323 210
0.0055545596 0.792 0.041659199 1.3087065e-38 324 210
0.0069256667 0.79000002 0.041554 1.3087065e-38 325 210
0.0083108004 0.79000002 0.041554 1.3087421e-38 326 210
0.0096959332 0.79000002 0.041554 1.3087421e-38 327 210
0.011081067 0.79000002 0.041554 1.2995952e-38 328 210
0.012450419 0.78899997 0.041501399 1.3088149e-38 329 210
0.013833799 0.78899997 0.041501399 1.3180716e-38 330 210
0.015178605 0.787 0.041396201 1.3272911e-38 331 210
0.01655848 0.787 0.041396201 1.336511e-38 332 210
0.017938353 0.787 0.041396201 1.3641338e-38 333 210
0.019269135 0.78500003 0.041291002 1.3458389e-38 334 210
0.020645501 0.78500003 0.041291002 1.3735334e-38 335 210
0.021965759 0.78299999 0.0411858 1.3736783e-38 336 210
0.023279008 0.78100002 0.041080598 1.4105205e-38 337 210
0.024616797 0.77999997 0.041027997 1.3739303e-38 338 210
0.025917772 0.778 0.040922798 1.4199922e-38 339 210
0.027211733 0.77600002 0.0408176 1.4752746e-38 340 210
0.028498679 0.77399999 0.040712398 1.5121529e-38 341 210
0.029740039 0.77100003 0.040554602 1.4848904e-38 342 210
0.030930554 0.76700002 0.040344197 1.5494273e-38 343 210
0.032149121 0.764 0.040186398 1.595598e-38 344 210
0.033357166 0.76099998 0.040028598 1.6324763e-38 345 210
0.034509107 0.75700003 0.039818201 1.6418407e-38 346 210
0.035741698 0.755 0.039712999 1.7063777e-38 347 210
0.036918186 0.75199997 0.039555199 1.7341083e-38 348 210
0.038084153 0.74900001 0.0393974 1.8631821e-38 349 210
0.039292198 0.74699998 0.039292198 2.1207163e-38 350 210
0.040601939 0.74699998 0.039292198 2.0377402e-38 351 210
0.041911677 0.74699998 0.039292198 1.9913162e-38 352 210
0.043221418 0.74699998 0.039292198 1.9175597e-38 353 210
-0.037728224 0.74199998 0.037728224 2.0834407e-38 291 211
-0.036427252 0.74199998 0.037728224 2.0283392e-38 292 211
-0.03512628 0.74199998 0.037728224 1.9453272e-38 293 211
-0.033916477 0.74400002 0.037829921 1.6226778e-38 294 211
-0.032699663 0.74599999 0.03793161 1.5489213e-38 295 211
-0.031391677 0.74599999 0.03793161 1.5210466e-38 296 211
-0.030124018 0.74699998 0.03798246 1.5026073e-38 297 211
-0.028891427 0.74900001 0.038084153 1.4748408e-38 298 211
-0.027578179 0.74900001 0.038084153 1.447182e-38 299 211
-0.027106533 0.773 0.039304473 1.437854e-38 300 211
-0.025751207 0.773 0.039304473 1.4193789e-38 301 211
-0.024395877 0.773 0.039304473 1.4101227e-38 302 211
-0.023040552 0.773 0.039304473 1.3916836e-38 303 211
-0.021769386 0.77600002 0.039457016 1.373244e-38 304 211
-0.020540299 0.78100002 0.039711244 1.3548051e-38 305 211
-0.019220039 0.78299999 0.039812941 1.3456211e-38 306 211
-0.017892767 0.78500003 0.039914634 1.3363657e-38 307 211
-0.01655848 0.787 0.040016327 1.3364012e-38 308 211
-0.015217179 0.78899997 0.040118016 1.3271817e-38 309 211
-0.013833799 0.78899997 0.040118016 1.3271097e-38 310 211
-0.012450419 0.78899997 0.040118016 1.3178901e-38 311 211
-0.011109119 0.792 0.040270559 1.3362213e-38 312 211
-0.0097450269 0.79400003 0.040372252 1.3362213e-38 313 211
-0.0083528794 0.79400003 0.040372252 1.3178898e-38 314 211
-0.0069607338 0.79400003 0.040372252 1.3178898e-38 315 211
-0.0055966396 0.79799998 0.040575638 1.3087419e-38 316 211
-0.0041974802 0.79799998 0.040575638 1.2903387e-38 317 211
-0.0027983198 0.79799998 0.040575638 1.2903387e-38 318 211
-0.0013956534 0.796 0.040473945 1.2903387e-38 319 211
0 0.796 0.040473945 1.2903387e-38 320 211
0.0013956534 0.796 0.040473945 1.2903387e-38 321 211
0.0027913067 0.796 0.040473945 1.3086347e-38 322 211
0.0041869599 0.796 0.040473945 1.2994151e-38 323 211
0.0055826134 0.796 0.040473945 1.3086347e-38 324 211
0.0069607338 0.79400003 0.040372252 1.3086347e-38 325 211
0.0083528794 0.79400003 0.040372252 1.3086703e-38 326 211
0.0097450269 0.79400003 0.040372252 1.3086703e-38 327 211
0.011137174 0.79400003 0.040372252 1.3087065e-38 328 211
0.012497759 0.792 0.040270559 1.3087065e-38 329 211
0.013851333 0.79000002 0.040168867 1.2995954e-38 330 211
0.015236467 0.79000002 0.040168867 1.3088151e-38 331 211
0.016600559 0.78899997 0.040118016 1.3363306e-38 332 211
0.017983939 0.78899997 0.040118016 1.3455502e-38 333 211
0.019318225 0.787 0.040016327 1.3548422e-38 334 211
0.0206981 0.787 0.040016327 1.3732815e-38 335 211
0.021965759 0.78299999 0.039812941 1.345947e-38 336 211
0.02333862 0.78299999 0.039812941 1.3643501e-38 337 211
0.024648361 0.78100002 0.039711244 1.3645306e-38 338 211
0.025917772 0.778 0.039558705 1.3921893e-38 339 211
0.027211733 0.77600002 0.039457016 1.4199569e-38 340 211
0.028498679 0.77399999 0.039355319 1.4752743e-38 341 211
0.029817186 0.773 0.039304473 1.4755266e-38 342 211
0.031011207 0.76899999 0.039101087 1.5124049e-38 343 211
0.032149121 0.764 0.038846854 1.5586476e-38 344 211
0.033357166 0.76099998 0.038694311 1.6047094e-38 345 211
0.034600276 0.759 0.038592618 1.6234012e-38 346 211
0.035741698 0.755 0.038389232 1.6694631e-38 347 211
0.036918186 0.75199997 0.038236689 1.7064496e-38 348 211
0.038084153 0.74900001 0.038084153 1.826268e-38 349 211
0.039292198 0.74699998 0.03798246 2.0930579e-38 350 211
0.040601939 0.74699998 0.03798246 2.04696e-38 351 211
0.041911677 0.74699998 0.03798246 1.9913881e-38 352 211
0.043221418 0.74699998 0.03798246 1.8900089e-38 353 211
-0.037677377 0.741 0.036378156 2.0650376e-38 291 212
-0.036378156 0.741 0.036378156 1.9915685e-38 292 212
-0.035078939 0.741 0.036378156 1.9085565e-38 293 212
-0.033825304 0.74199998 0.036427252 1.5859073e-38 294 212
-0.032699663 0.74599999 0.036623627 1.5121508e-38 295 212
-0.031391677 0.74599999 0.036623627 1.4934596e-38 296 212
-0.030124018 0.74699998 0.036672719 1.4658011e-38 297 212
-0.028891427 0.74900001 0.036770906 1.4381057e-38 298 212
-0.027578179 0.74900001 0.036770906 1.392008e-38 299 212
-0.027351998 0.77999997 0.038292799 1.4010476e-38 300 212
-0.025851147 0.77600002 0.038096428 1.3641335e-38 301 212
-0.024490559 0.77600002 0.038096428 1.3640971e-38 302 212
-0.023129974 0.77600002 0.038096428 1.3456221e-38 303 212
-0.021909652 0.78100002 0.038341891 1.3731e-38 304 212
-0.020540299 0.78100002 0.038341891 1.3546609e-38 305 212
-0.019220039 0.78299999 0.038440078 1.3271817e-38 306 212
-0.017938353 0.787 0.03863645 1.317962e-38 307 212
-0.016600559 0.78899997 0.038734637 1.3271097e-38 308 212
-0.015217179 0.78899997 0.038734637 1.3178901e-38 309 212
-0.013851333 0.79000002 0.038783733 1.3270018e-38 310 212
-0.012497759 0.792 0.03888192 1.3270018e-38 311 212
-0.011165227 0.796 0.039078292 1.3270015e-38 312 212
-0.0097695729 0.796 0.039078292 1.3270015e-38 313 212
-0.0083739199 0.796 0.039078292 1.3086703e-38 314 212
-0.0069957995 0.79799998 0.039176479 1.3086703e-38 315 212
-0.0055966396 0.79799998 0.039176479 1.2994504e-38 316 212
-0.0041974802 0.79799998 0.039176479 1.3178895e-38 317 212
-0.0027983198 0.79799998 0.039176479 1.30867e-38 318 212
-0.0013991599 0.79799998 0.039176479 1.2994504e-38 319 212
0 0.79799998 0.039176479 1.30867e-38 320 212
0.0013991599 0.79799998 0.039176479 1.2994504e-38 321 212
0.0028053334 0.80000001 0.039274666 1.2993432e-38 322 212
0.0042079999 0.80000001 0.039274666 1.3085628e-38 323 212
0.0056106667 0.80000001 0.039274666 1.2994151e-38 324 212
0.007013333 0.80000001 0.039274666 1.2994151e-38 325 212
0.0083949603 0.79799998 0.039176479 1.3085984e-38 326 212
0.0097941197 0.79799998 0.039176479 1.3085984e-38 327 212
0.011165227 0.796 0.039078292 1.3085628e-38 328 212
0.01252932 0.79400003 0.038980108 1.3085628e-38 329 212
0.013921468 0.79400003 0.038980108 1.2811204e-38 330 212
0.01527504 0.792 0.03888192 1.2811204e-38 331 212
0.016621601 0.79000002 0.038783733 1.2995245e-38 332 212
0.018006733 0.79000002 0.038783733 1.2995245e-38 333 212
0.019367319 0.78899997 0.038734637 1.3087811e-38 334 212
0.0206981 0.787 0.03863645 1.3272561e-38 335 212
0.021965759 0.78299999 0.038440078 1.3457675e-38 336 212
0.02333862 0.78299999 0.038440078 1.3642067e-38 337 212
0.024648361 0.78100002 0.038341891 1.3643507e-38 338 212
0.025917772 0.778 0.038194612 1.3920095e-38 339 212
0.027211733 0.77600002 0.038096428 1.3921543e-38 340 212
0.028498679 0.77399999 0.037998237 1.4566912e-38 341 212
0.029817186 0.773 0.037949149 1.4476882e-38 342 212
0.03117251 0.773 0.037949149 1.4845663e-38 343 212
0.032527838 0.773 0.037949149 1.5032575e-38 344 212
0.033883166 0.773 0.037949149 1.5862337e-38 345 212
0.034417931 0.755 0.037065465 1.6140013e-38 346 212
0.035741698 0.755 0.037065465 1.6509154e-38 347 212
0.036918186 0.75199997 0.036918186 1.6879378e-38 348 212
0.038084153 0.74900001 0.036770906 1.8077922e-38 349 212
0.0393974 0.74900001 0.036770906 2.0745827e-38 350 212
0.040601939 0.74699998 0.036672719 2.04696e-38 351 212
0.041911677 0.74699998 0.036672719 2.0096477e-38 352 212
0.043221418 0.74699998 0.036672719 1.9082684e-38 353 212
-0.037677377 0.741 0.035078939 2.0558902e-38 291 213
-0.036378156 0.741 0.035078939 1.9547625e-38 292 213
-0.035078939 0.741 0.035078939 1.8717505e-38 293 213
-0.033779722 0.741 0.035078939 1.5674323e-38 294 213
-0.032480497 0.741 0.035078939 1.4660532e-38 295 213
-0.03118128 0.741 0.035078939 1.4566171e-38 296 213
-0.030124018 0.74699998 0.035362978 1.4289224e-38 297 213
-0.028814279 0.74699998 0.035362978 1.4286704e-38 298 213
-0.028756421 0.78100002 0.036972538 1.3918281e-38 299 213
-0.027351998 0.77999997 0.036925197 1.3275061e-38 300 213
-0.025917772 0.778 0.036830518 1.2813723e-38 301 213
-0.024553679 0.778 0.036830518 1.3639523e-38 302 213
-0.023249198 0.77999997 0.036925197 1.3547328e-38 303 213
-0.021965759 0.78299999 0.037067216 1.3546603e-38 304 213
-0.0205929 0.78299999 0.037067216 1.3546603e-38 305 213
-0.019269135 0.78500003 0.037161902 1.3272166e-38 306 213
-0.017983939 0.78899997 0.037351258 1.317997e-38 307 213
-0.016621601 0.79000002 0.037398599 1.3362566e-38 308 213
-0.01527504 0.792 0.037493281 1.3270012e-38 309 213
-0.013921468 0.79400003 0.037587963 1.3270012e-38 310 213
-0.01256088 0.796 0.037682641 1.3085981e-38 311 213
-0.011193279 0.79799998 0.03777732 1.3270012e-38 312 213
-0.0097941197 0.79799998 0.03777732 1.3085981e-38 313 213
-0.0084159998 0.80000001 0.037871998 1.3085981e-38 314 213
-0.007013333 0.80000001 0.037871998 1.3085981e-38 315 213
-0.0056106667 0.80000001 0.037871998 1.2994504e-38 316 213
-0.0042079999 0.80000001 0.037871998 1.2994504e-38 317 213
-0.0028053334 0.80000001 0.037871998 1.3086337e-38 318 213
-0.0014026667 0.80000001 0.037871998 1.3086337e-38 319 213
0 0.80199999 0.037966676 1.3086334e-38 320 213
0.0014061732 0.80199999 0.037966676 1.2994138e-38 321 213
0.0028123464 0.80199999 0.037966676 1.2993782e-38 322 213
