# .PCD v0.7 - Point Cloud Data file format
VERSION 0.7
FIELDS x y z
SIZE 4 4 4
TYPE F F F
COUNT 1 1 1
WIDTH 823
HEIGHT 1
VIEWPOINT 0 0 0 1 0 0 1
POINTS 823
DATA ascii
0.023819307 -0.069077343 0.29922238
0.027288388 -0.06899219 0.29873329
0.032025576 -0.069153965 0.29922932
0.037149273 -0.069129407 0.29886395
0.040682733 -0.069183998 0.29889387
0.044363566 -0.071145788 0.30294558
0.047653954 -0.071007058 0.30250472
0.052227572 -0.072239026 0.30378264
0.055190958 -0.073562108 0.30387971
0.014850243 -0.069676809 0.30204332
0.018020231 -0.069361046 0.30311874
0.022585575 -0.067849241 0.30249512
0.027671939 -0.067125358 0.30320838
0.03262683 -0.067214832 0.30240977
0.037299871 -0.067083284 0.30177277
0.042302165 -0.06813021 0.3033824
0.047819011 -0.06932126 0.3037627
0.032914005 -0.063258193 0.30367911
0.03777536 -0.064238429 0.30448744
0.007140616 -0.072412491 0.30832604
0.01218163 -0.071316808 0.30603161
0.016507722 -0.072162926 0.30645823
0.042788118 -0.072981149 0.30879948
0.053699996 -0.07077001 0.30694243
0.05624887 -0.072891645 0.30723685
0.0094129685 -0.069142111 0.3093842
0.012438861 -0.068346709 0.30824673
0.016743992 -0.067251943 0.30644995
0.022150885 -0.066165581 0.30558619
0.03931877 -0.06622614 0.30520317
0.042949386 -0.066308424 0.30538166
0.047669418 -0.066755056 0.3065173
0.052560624 -0.067784064 0.30809608
0.017727399 -0.063476093 0.30797559
0.022475235 -0.063049503 0.3072477
0.027320858 -0.062513888 0.30602342
0.031618543 -0.061390001 0.30606839
0.037342913 -0.061680056 0.30584139
0.042319514 -0.062850229 0.30634761
0.046160255 -0.063163765 0.30714357
0.018789224 -0.05895865 0.30954158
0.022140618 -0.058508158 0.30877244
0.027642956 -0.058308464 0.3082616
0.032431509 -0.057933833 0.30855623
0.037715361 -0.058582295 0.3083455
0.042290494 -0.058070768 0.30888051
-0.0014499008 -0.076580435 0.31266329
0.00074402482 -0.076311491 0.3115702
0.051552281 -0.075593859 0.31278902
0.059140444 -0.076559335 0.31174105
0.062137924 -0.077407286 0.312783
-0.00071324629 -0.074754067 0.3112978
0.0025671865 -0.073386185 0.311809
0.0061905337 -0.07057476 0.31084037
0.019708971 -0.073411755 0.31168175
0.021245064 -0.07370396 0.3128756
0.03879806 -0.073664084 0.3119908
0.040842131 -0.073386163 0.31066844
0.058513582 -0.072324686 0.31199801
0.061704028 -0.074817136 0.31491578
0.0036796702 -0.069403484 0.31392002
0.0074562356 -0.067282856 0.31236368
0.012007843 -0.066243455 0.31123644
0.054853346 -0.066289335 0.31136468
0.057610746 -0.067657448 0.3132894
0.0086951032 -0.063223578 0.31373897
0.012386377 -0.062320784 0.31184059
0.016417887 -0.06143954 0.31105709
0.048233356 -0.061371434 0.31109396
0.051979985 -0.062694453 0.31226546
0.055639818 -0.062375285 0.31414732
0.012931427 -0.057977986 0.31349957
0.01738984 -0.057455353 0.3114444
0.022829667 -0.056268621 0.31153244
0.027098162 -0.056091093 0.31099677
0.032609727 -0.056002885 0.3103604
0.037414875 -0.056215756 0.31061232
0.04395631 -0.056316447 0.311676
0.047359582 -0.057754487 0.31239474
0.05165346 -0.057881933 0.3132526
0.055337977 -0.059495516 0.31481224
0.01758329 -0.054643638 0.31402743
0.023143332 -0.052574284 0.313337
0.027692582 -0.052180968 0.31239212
0.032757197 -0.05213381 0.31197551
0.037382327 -0.052351087 0.31212792
0.042492721 -0.052146241 0.31263325
0.047863372 -0.053465482 0.31383854
0.051155161 -0.054314703 0.3139278
0.023441985 -0.048058629 0.31417775
0.027146587 -0.048873022 0.31461975
0.032503832 -0.047906838 0.3137331
0.036964443 -0.048394784 0.31373852
0.040341511 -0.048875663 0.31436428
0.062744953 -0.080619432 0.31950891
0.066638336 -0.08145117 0.3180747
-0.0052121771 -0.079729229 0.31921822
-0.0031059769 -0.077767096 0.31746727
0.0081403432 -0.075850949 0.31580764
0.063858837 -0.07636036 0.31792146
0.06540522 -0.079421267 0.31746337
-0.0013645868 -0.072975233 0.31834456
0.0013546601 -0.07198365 0.31739524
0.03772046 -0.074415796 0.31526938
0.062876582 -0.072337866 0.31740367
-0.02660257 -0.065564014 0.31651658
0.0026123109 -0.067754418 0.31753445
0.0051809624 -0.066852018 0.31591061
0.058508676 -0.065648757 0.31518191
0.061267495 -0.068091184 0.31750786
0.0037498418 -0.064582825 0.31943282
0.0063043498 -0.06187832 0.31717166
0.05821 -0.062398024 0.3166241
0.06075383 -0.064236611 0.31930017
0.0083108041 -0.057777584 0.31809166
0.011710028 -0.056426417 0.31749672
0.053931139 -0.056619119 0.31556019
0.056981035 -0.05763774 0.31789875
0.01293864 -0.052819729 0.31787029
0.017695704 -0.052044876 0.31612355
0.021334562 -0.051931709 0.31537151
0.047567781 -0.050985444 0.31570444
0.052611213 -0.052339379 0.31688458
0.056801055 -0.054290447 0.3192949
0.017473755 -0.047645148 0.31884372
0.02177362 -0.046512008 0.31769413
0.027098542 -0.046902686 0.31627369
0.0319006 -0.046614986 0.31521639
0.038151082 -0.046328772 0.3171941
0.042312935 -0.04688048 0.31714743
0.047182709 -0.047989089 0.31709814
0.051458765 -0.049691897 0.31917414
0.018642152 -0.043689154 0.31985748
0.023571318 -0.043126598 0.31933054
0.027526181 -0.042454205 0.31764561
0.032543767 -0.042617161 0.31729108
0.037737727 -0.042365607 0.31863785
0.04224221 -0.042342588 0.31918043
0.046471778 -0.043611854 0.31742427
0.031288736 -0.039202426 0.31965286
0.036532152 -0.039234206 0.31985182
0.069931179 -0.085037068 0.32336396
-0.0072961384 -0.081657946 0.32276022
-0.0052535078 -0.077293947 0.3218455
-0.0037231948 -0.075336985 0.32006428
0.009830785 -0.077521309 0.32276392
0.066021793 -0.077900574 0.32085049
-0.027969748 -0.071096778 0.32341146
-0.022595825 -0.072127387 0.32243672
-0.017039536 -0.071545571 0.32144159
-0.012859497 -0.071901821 0.3242408
-0.0083056754 -0.073169462 0.32391819
-0.0033804169 -0.072597235 0.32314181
-0.03203601 -0.066764981 0.32319298
-0.028060714 -0.068062305 0.32220823
-0.022914167 -0.069181316 0.32249963
-0.018070763 -0.069096431 0.32271844
-0.0097980574 -0.06997025 0.32335609
-0.0010363817 -0.068039052 0.3229723
0.00076991622 -0.067108177 0.32068503
0.063246205 -0.067512259 0.32128862
-0.035590056 -0.061874524 0.32438546
-0.032811351 -0.063521564 0.32308978
-0.029534809 -0.064157635 0.32450789
0.0022695211 -0.062802672 0.32191911
0.06225254 -0.062282372 0.32254657
-0.037887096 -0.058876589 0.32464534
0.0034211287 -0.058277398 0.32407215
0.0056367205 -0.057034779 0.32132906
0.05962266 -0.05709058 0.32209736
0.061148413 -0.05937025 0.32184711
0.0076795043 -0.052467927 0.32241485
0.011207277 -0.051204976 0.32014
0.054348134 -0.050571449 0.32142365
0.057660654 -0.052215602 0.32244164
0.0092216972 -0.047541436 0.32373658
0.012746587 -0.047649413 0.32139647
0.015684161 -0.045243911 0.3202751
0.052052539 -0.046895031 0.32183287
0.055981975 -0.047387566 0.3237344
0.01300634 -0.0428361 0.32326895
0.017047746 -0.042218138 0.3214241
0.021448605 -0.041852303 0.32043979
0.044078048 -0.040815216 0.3203741
0.047685735 -0.04140351 0.32190561
0.051874403 -0.042926144 0.32327119
0.055788226 -0.04390502 0.32423049
0.01286074 -0.039756201 0.32425576
0.017767129 -0.03835218 0.32336104
0.022684241 -0.037413012 0.32231605
0.027728122 -0.037184741 0.32159865
0.032385305 -0.036932498 0.32153478
0.037605561 -0.037221838 0.32179165
0.042668801 -0.037478477 0.32214832
0.047345243 -0.038394973 0.32352912
0.050701369 -0.039840393 0.3243959
0.02417689 -0.033715732 0.32425267
0.028143343 -0.032608189 0.32395616
0.032356702 -0.032378878 0.32297111
0.037269313 -0.032617543 0.32282254
0.041976687 -0.03316107 0.32358518
0.033952489 -0.029153446 0.32385069
0.068741761 -0.085458487 0.32521147
0.070615746 -0.08740896 0.32617801
-0.01002827 -0.083988063 0.32984176
-0.0084060887 -0.081673846 0.32698348
0.069089867 -0.081237651 0.32771671
-0.020760329 -0.075928502 0.32897532
-0.007628439 -0.076978028 0.32699233
0.0023026851 -0.079775244 0.32570201
0.067326769 -0.077110752 0.32752329
-0.031372845 -0.070937946 0.32732064
-0.012898297 -0.070396855 0.32527289
-0.0068604299 -0.072362684 0.32727796
-0.003783382 -0.070470579 0.32569632
-0.036118012 -0.066642158 0.32893556
-0.034219671 -0.06746047 0.32543355
-0.026764203 -0.066314429 0.32767108
-0.022109766 -0.068162769 0.326711
-0.016005458 -0.069197066 0.32684615
-0.012621157 -0.069091417 0.32824409
-0.0071876394 -0.06926427 0.32874838
-0.0030365388 -0.067685165 0.32714912
0.065130994 -0.067923605 0.32562396
-0.036737621 -0.06286104 0.32547531
-0.033021722 -0.061710853 0.32604763
-0.0015034375 -0.062917851 0.32641625
0.00077786087 -0.061178256 0.32530749
0.0638794 -0.060531508 0.32803103
0.065215982 -0.064936571 0.3263593
-0.037521563 -0.057673234 0.32653162
-0.00074351614 -0.058691733 0.32853258
0.0017330555 -0.056928873 0.32614851
0.062801674 -0.05730173 0.3275263
0.0030744381 -0.052374106 0.32747421
0.0053385929 -0.050625976 0.32610744
0.061371278 -0.052658342 0.32770538
0.0034661577 -0.048288029 0.32830584
0.0064377422 -0.047476489 0.32687104
0.059005756 -0.047232088 0.3278369
0.060670912 -0.048874374 0.32837802
0.0079736887 -0.042662743 0.32753339
0.012165001 -0.040703062 0.32582754
0.054009996 -0.040810674 0.32594979
0.05688547 -0.041973792 0.32652852
0.0089737894 -0.037830606 0.32942826
0.012959656 -0.037034377 0.32690579
0.016850013 -0.0362809 0.32559028
0.020463778 -0.035326522 0.32517999
0.044741124 -0.035367563 0.32530296
0.048156247 -0.035750125 0.32525796
0.052534729 -0.037338328 0.32636449
0.056714613 -0.038047273 0.32837388
0.013042536 -0.033818796 0.32894668
0.017525343 -0.032464623 0.32686606
0.022470571 -0.032050688 0.32577378
0.027311347 -0.030821506 0.32557124
0.038722239 -0.030865118 0.32590464
0.043354291 -0.031781808 0.32638812
0.047985464 -0.032479469 0.32675067
0.052672211 -0.033129714 0.32871652
0.018049616 -0.028254963 0.32850778
0.022114251 -0.027928747 0.32725042
0.027343705 -0.027823161 0.3259939
0.032487895 -0.027652722 0.3262127
0.037252475 -0.027856672 0.32633379
0.042150717 -0.027433675 0.32785955
0.046945579 -0.028036503 0.32828754
0.019210413 -0.022766989 0.32969376
0.022492332 -0.023997158 0.32902342
0.027483603 -0.022821218 0.32831514
0.03285731 -0.02264845 0.32797867
0.03733217 -0.022877 0.32827187
0.040596623 -0.024238404 0.32880276
0.031464238 -0.01891901 0.32946393
0.036097169 -0.018930735 0.32973143
0.070421793 -0.095457308 0.33148956
0.068710789 -0.093712121 0.33151427
0.071521536 -0.091788948 0.33168307
0.075682715 -0.092138834 0.33384547
-0.010115823 -0.086220354 0.33233359
-0.0085463608 -0.086154856 0.33208266
0.072559781 -0.08727584 0.3317219
-0.010095309 -0.082957111 0.33207926
-0.0084951818 -0.080943085 0.33041894
0.070367105 -0.081161506 0.3340483
-0.023329407 -0.076770201 0.33256641
-0.017751239 -0.076234639 0.3303881
-0.01237981 -0.076884806 0.33156693
-0.0084764212 -0.078526616 0.330228
0.068128124 -0.075680263 0.33179626
0.067954659 -0.073145121 0.3312524
-0.038343083 -0.066274717 0.33491746
-0.026962869 -0.066803992 0.33008119
-0.021027634 -0.069119096 0.33387753
-0.017921798 -0.069155693 0.33407697
-0.011889743 -0.067956574 0.33141804
-0.0071532503 -0.067035638 0.33253652
-0.0038294599 -0.06516242 0.33001116
0.068462484 -0.068183705 0.33440515
-0.039423771 -0.062380437 0.33101892
-0.031868242 -0.062737703 0.33317855
-0.0030795187 -0.061718225 0.33233911
0.066261567 -0.062076993 0.33200145
-0.041555975 -0.057633962 0.33283308
-0.036473297 -0.057193756 0.33277366
-0.03471975 -0.059182335 0.3307448
-0.0019039721 -0.057229601 0.33119217
0.064435311 -0.057948954 0.33109659
-0.041891702 -0.052512825 0.3326323
-0.038760785 -0.054041047 0.33248761
-0.00075034564 -0.053187665 0.33257461
0.000796073 -0.05281385 0.33022389
0.06383951 -0.05032929 0.33267701
-0.042924132 -0.047366355 0.33484152
-0.00075313204 -0.046513833 0.33483422
0.0017622615 -0.047080699 0.33196539
0.062364239 -0.046844382 0.33253893
0.003126984 -0.042369366 0.33294067
0.0054269396 -0.041392688 0.33132362
0.059153453 -0.041308917 0.33182397
0.062355824 -0.044148691 0.33347207
0.0038881532 -0.039167278 0.3320646
0.0064546871 -0.037021309 0.33132648
0.058008179 -0.037113234 0.33138925
0.060184143 -0.038026433 0.33482066
0.0081534628 -0.033403598 0.3324737
0.011759651 -0.032032855 0.33118266
0.053957321 -0.031333707 0.33056444
0.05613732 -0.032242477 0.33198994
0.0125628 -0.027445173 0.33247769
0.017124727 -0.026082868 0.33088475
0.047983825 -0.025646789 0.33035854
0.052177187 -0.027283533 0.33210015
0.0086123217 -0.0239197 0.33498856
0.01294273 -0.022459574 0.33421388
0.01737164 -0.021948764 0.33224121
0.022090007 -0.021552538 0.33066434
0.028462259 -0.020498097 0.33015817
0.039212544 -0.020490536 0.33009478
0.042616528 -0.021906076 0.3310968
0.047194738 -0.022167502 0.33208057
0.051286712 -0.022260165 0.33345544
0.014011763 -0.019170906 0.333821
0.018087542 -0.017802443 0.33368316
0.022457771 -0.017531114 0.33225551
0.027044496 -0.017497558 0.33164287
0.032477133 -0.017334962 0.33122763
0.038028385 -0.017293638 0.33148107
0.042499971 -0.017505668 0.33174261
0.047141887 -0.017772546 0.33308133
0.050723184 -0.01923733 0.33489311
0.018642934 -0.013704107 0.33319354
0.022357499 -0.0134046 0.33404765
0.027365124 -0.013122054 0.33320779
0.032535262 -0.012902416 0.33256137
0.038006671 -0.012918794 0.33298755
0.042498093 -0.013122331 0.33323827
0.04581105 -0.013713578 0.3333441
0.028287265 -0.00933774 0.33418125
0.03266605 -0.0086011114 0.33388099
0.037083991 -0.0093320943 0.33400649
0.067788877 -0.096567295 0.33896464
0.070213236 -0.097380191 0.33841971
0.069396384 -0.093048096 0.33516151
0.071272597 -0.091005027 0.33671477
0.076065734 -0.092781723 0.33942154
-0.010210522 -0.088643007 0.33540082
0.068402335 -0.087430246 0.33961275
-0.010214753 -0.081609793 0.33639991
0.058221862 -0.08345744 0.33824947
0.064351112 -0.084733084 0.3359853
-0.028386859 -0.076249957 0.33713919
0.070966639 -0.077859826 0.33751488
-0.030568076 -0.07423225 0.33519694
0.068690322 -0.071559526 0.33513197
-0.040363867 -0.065449476 0.33879352
-0.01179108 -0.066655666 0.33750045
-0.010164145 -0.064003199 0.3360959
-0.0068160649 -0.063786298 0.3367953
-0.0038964762 -0.062180638 0.33626223
0.068851762 -0.063825548 0.33683154
-0.035232134 -0.05850061 0.33579811
-0.0055182558 -0.059142221 0.33992034
-0.0033822327 -0.057122104 0.33740467
0.066622421 -0.057392057 0.33696479
-0.040215414 -0.051023636 0.33832467
-0.039271813 -0.052397929 0.33701378
-0.0025985425 -0.052427124 0.33765876
0.065417975 -0.053312596 0.336573
-0.042930093 -0.047397278 0.3366603
-0.0019431012 -0.04813375 0.33801031
0.065759927 -0.048836507 0.33861858
-0.045085728 -0.040890776 0.3395167
-0.043657076 -0.044048239 0.33823532
-0.00076105655 -0.043129262 0.33887181
0.0008091355 -0.042913526 0.337185
0.062883861 -0.042168774 0.33642828
0.065599069 -0.044767577 0.33798727
-0.045009173 -0.038445774 0.33897597
-0.044142853 -0.036809478 0.338489
0.0022083749 -0.03771143 0.33753383
0.061636239 -0.037398495 0.33759803
0.0032966109 -0.032512221 0.33875337
0.0064793527 -0.031998087 0.33595756
0.058503091 -0.032193322 0.33616418
0.060911156 -0.033745646 0.33900911
0.0039864373 -0.029008355 0.33979434
0.0070847473 -0.027193304 0.33698121
0.057344809 -0.027218038 0.33685908
0.0039840122 -0.024268148 0.33996212
0.0073873191 -0.022605022 0.33871776
0.010206196 -0.021654781 0.33626968
0.053953275 -0.022407982 0.33549488
0.056786098 -0.022599559 0.33833084
0.007926112 -0.019484773 0.33931315
0.012294784 -0.017515134 0.33785486
0.016448172 -0.016160509 0.33584681
0.049304698 -0.016161734 0.33592132
0.052733954 -0.017569846 0.33651662
0.056449439 -0.018285001 0.33873677
0.012843199 -0.013270219 0.33829361
0.017387567 -0.01240779 0.33590719
0.02343785 -0.011446711 0.33522299
0.025826443 -0.011468134 0.33583632
0.044515766 -0.011454289 0.33529359
0.048151616 -0.012804458 0.33570418
0.052632727 -0.012953689 0.33826932
0.014997899 -0.0099813594 0.33844566
0.057919279 -0.10168519 0.34319997
0.066198148 -0.10024576 0.34309435
0.063799888 -0.099352643 0.34233207
0.067095116 -0.097307831 0.34175429
0.074697748 -0.097393557 0.34401539
-0.01048413 -0.092573568 0.34396431
0.068772346 -0.094382219 0.3402063
0.072423309 -0.094106406 0.34181339
0.079808921 -0.094335891 0.34468025
0.08141946 -0.091012016 0.34492996
-0.012082572 -0.089289449 0.34410903
-0.00078857254 -0.085759968 0.34341794
0.06753365 -0.088398866 0.34360924
0.070387885 -0.089517772 0.34090465
0.07547415 -0.089800373 0.3412194
0.071565047 -0.078513801 0.34034455
0.072010413 -0.074146233 0.34314898
-0.024924854 -0.069729343 0.34462348
-0.015173571 -0.069290154 0.342628
-0.013491318 -0.067286886 0.34069818
0.069608271 -0.066122465 0.34033591
-0.042161833 -0.062609091 0.34069189
-0.034571156 -0.061678208 0.34473425
-0.011178042 -0.06377247 0.34336752
-0.0071608443 -0.062220424 0.34223044
-0.036900375 -0.057528347 0.34410623
-0.005546764 -0.057058156 0.34174705
-0.0039561889 -0.05629636 0.34198821
0.068194352 -0.055875473 0.34236372
-0.045354795 -0.051483534 0.34121251
-0.0055787265 -0.054979675 0.34377706
-0.003967301 -0.051617235 0.34277481
0.067980424 -0.051702004 0.34156418
-0.045401704 -0.049939752 0.34163931
-0.040528104 -0.049027704 0.34103221
-0.0036358312 -0.047058832 0.3421815
0.066534042 -0.047018964 0.34276643
-0.043019973 -0.041988209 0.3420493
-0.0019641207 -0.041603722 0.34255105
0.064631522 -0.040417399 0.34158257
0.066384174 -0.042909868 0.34216696
-0.045412853 -0.035608165 0.34211582
-0.043770816 -0.037159868 0.34176895
-0.0015686403 -0.037202992 0.34244841
0.00082535297 -0.035406601 0.34049466
0.064174734 -0.037267271 0.34206721
0.06504374 -0.035850286 0.34389004
-0.045623519 -0.034172453 0.34370214
-0.00076786976 -0.034070276 0.34297481
0.00082631293 -0.032303419 0.34120095
0.062486913 -0.032164384 0.34241629
0.0022127577 -0.027346391 0.34130892
0.062179126 -0.027625363 0.34170181
0.0032330847 -0.022951301 0.34390134
0.0055927793 -0.021973651 0.34114915
0.059634291 -0.022780998 0.34102654
0.062391281 -0.022920758 0.34295976
0.0040413435 -0.018974569 0.34430355
0.0069588963 -0.017576512 0.3416768
0.059014477 -0.018070454 0.3421008
0.060773514 -0.01712917 0.34451598
0.0073866593 -0.013006709 0.34347692
0.030506659 -0.10440305 0.34892479
0.057641119 -0.10180928 0.34666526
0.061018419 -0.10106914 0.34796533
-0.01058212 -0.09511821 0.34711114
-0.006791926 -0.096888028 0.34743279
0.063086048 -0.097894989 0.34885675
0.066296339 -0.096476696 0.34674051
-0.0089253141 -0.093186438 0.34625936
0.063659236 -0.094777547 0.34884322
0.06763047 -0.092908524 0.3478055
0.071367495 -0.092405058 0.34533414
0.079927295 -0.092827089 0.34553117
0.080721274 -0.090410531 0.34962657
-0.0056627775 -0.088193119 0.34642231
0.057903945 -0.085329816 0.34601328
0.06606546 -0.088896222 0.34920907
0.0056982781 -0.084929399 0.34671241
0.079156987 -0.075610176 0.34510192
-0.04468441 -0.060695145 0.34809491
-0.0072408556 -0.061115462 0.34659362
-0.046221077 -0.054083422 0.3476544
-0.0056394404 -0.052369934 0.34767133
-0.041389301 -0.04763389 0.34833565
0.0693115 -0.047009081 0.34858698
-0.04268026 -0.040828321 0.34575614
-0.0040158457 -0.042586129 0.34733865
0.068822339 -0.042475376 0.34838757
-0.047953106 -0.039571587 0.34887671
-0.042841554 -0.037746787 0.34715974
-0.0040358081 -0.038785502 0.34953749
0.067165539 -0.037745666 0.34640539
-0.046028972 -0.032052301 0.34681484
-0.044069238 -0.033310525 0.34732974
-0.0021311175 -0.032631356 0.34753591
0.066103153 -0.032561831 0.34743705
-0.046375282 -0.029855102 0.34947205
-0.043792456 -0.028134134 0.34842193
-0.0011848412 -0.027688826 0.34811151
0.066029258 -0.028479066 0.34714139
-0.043004304 -0.022463623 0.34865937
-0.00077749754 -0.022429844 0.34826317
0.0012391526 -0.022710796 0.3463946
0.065866724 -0.024115944 0.34854406
0.0021312404 -0.01721002 0.34755635
0.062966891 -0.017694181 0.34708753
0.044457071 -0.10623331 0.35411105
0.04778479 -0.10618043 0.35361195
0.051931728 -0.10607432 0.35285223
-0.0074942438 -0.10063216 0.3546375
-0.0013639632 -0.1008634 0.35143894
0.0019550207 -0.10209183 0.35367724
0.0058480781 -0.10400338 0.35421997
0.049636357 -0.10484611 0.35498828
0.053348668 -0.10430102 0.35425413
0.057034861 -0.10181012 0.35187671
0.062777504 -0.10433765 0.35169941
0.0694049 -0.10255215 0.35074791
0.071939535 -0.10380668 0.35474467
-0.0066045839 -0.096910931 0.35215217
-0.0030171149 -0.098505557 0.35223863
0.054593552 -0.099644609 0.3549377
0.058033682 -0.097960129 0.35403183
0.061212149 -0.096732363 0.35155755
-0.007420633 -0.093068466 0.35219908
-0.0041198791 -0.090002649 0.3535524
0.059450909 -0.090965554 0.35478041
0.062641837 -0.092107669 0.35206306
0.065509021 -0.09009596 0.35060519
0.080866322 -0.093202606 0.35372287
0.00084637746 -0.088413037 0.35404193
0.0074567883 -0.086485431 0.3530767
0.058108181 -0.088392556 0.35386276
0.062475309 -0.088832289 0.35286188
0.082201347 -0.089464456 0.35261652
0.018172111 -0.084704354 0.35253868
0.048570789 -0.084480107 0.35030445
0.079151072 -0.077188931 0.35257694
-0.023799334 -0.071178444 0.35178664
-0.013900406 -0.067678481 0.35105893
-0.035286453 -0.061304871 0.35193333
-0.033772901 -0.06484881 0.35321739
-0.0090010343 -0.062941693 0.35224193
0.071657166 -0.063131943 0.35085076
-0.038460042 -0.056216706 0.35106248
-0.0073727774 -0.058090575 0.35289615
0.072016761 -0.059306867 0.35296974
-0.0069537135 -0.053092916 0.35257161
0.07033436 -0.050184876 0.35356012
-0.006128184 -0.048567638 0.35253793
-0.048536748 -0.043348767 0.35305831
-0.0057109958 -0.042634562 0.3522405
-0.048378825 -0.03827991 0.35198978
-0.0057370123 -0.036813345 0.35407206
-0.0040503498 -0.036507014 0.35105547
0.068274431 -0.035088986 0.35227627
-0.043227073 -0.032370526 0.35036594
-0.0040748175 -0.03228578 0.35265753
0.06803894 -0.033323407 0.35110152
-0.0034248382 -0.027860735 0.35342333
0.068168283 -0.027640786 0.35187829
-0.040992271 -0.02187686 0.352359
-0.0082243672 -0.02202633 0.35475415
-0.0027540221 -0.022853563 0.3522687
-0.040585086 -0.017366238 0.35239005
0.0092639271 -0.10652947 0.35678053
0.012595064 -0.10623404 0.35573587
0.017368082 -0.10682191 0.35907245
0.022871837 -0.10725743 0.35885319
0.02803487 -0.10757807 0.35969657
0.03384003 -0.10627298 0.35802403
0.038588878 -0.10695679 0.35941219
0.042394012 -0.1065308 0.35830295
0.047377773 -0.10544782 0.35724717
0.055918571 -0.10729752 0.35653615
-0.0042190524 -0.10389846 0.35993436
0.0036479807 -0.10292607 0.35658655
0.0075966828 -0.10252452 0.35822037
0.011510015 -0.10434516 0.35733575
0.04463134 -0.10495321 0.35580781
0.048793506 -0.10248961 0.35838673
0.052747529 -0.10193247 0.35694441
0.078924052 -0.10069819 0.35537148
-0.002156521 -0.096565954 0.35629842
0.0025382615 -0.097991772 0.35771489
0.0059134895 -0.095001742 0.35953107
0.053268172 -0.097364172 0.35802948
0.056253213 -0.096247427 0.3552213
-0.005823791 -0.093119867 0.35564935
-0.0022831156 -0.092627883 0.35628015
0.002533932 -0.092821799 0.35785714
0.0059151533 -0.09239912 0.35957211
0.053520642 -0.092370532 0.35857475
0.057833843 -0.093285546 0.35631618
0.06124039 -0.092825629 0.35501033
0.080959558 -0.090888776 0.35866565
0.0033753582 -0.089385763 0.3579202
0.0075738574 -0.088920295 0.35832375
0.046979606 -0.086102247 0.35720035
0.054228544 -0.088759981 0.35808155
0.056254357 -0.088694364 0.35644197
0.082014076 -0.088482536 0.35590279
0.08032085 -0.075796507 0.35813558
-0.023452394 -0.071818531 0.35918432
0.078063421 -0.066010088 0.35684192
0.080403388 -0.066564769 0.35959834
-0.034328125 -0.064228259 0.35908115
-0.009131521 -0.06133882 0.35734084
-0.03836897 -0.057290565 0.35783768
-0.0091968812 -0.059245285 0.35988086
0.07267455 -0.056509502 0.35644054
-0.040718623 -0.052941687 0.35665619
0.072726585 -0.05403927 0.35687941
-0.0074414024 -0.047048606 0.35664579
-0.0070307315 -0.042081691 0.35675037
0.071423464 -0.040884163 0.35954875
-0.048996173 -0.0371143 0.35657775
-0.0074574035 -0.036332101 0.35742903
0.071125686 -0.037366562 0.3581714
-0.0057792803 -0.032093108 0.35648698
-0.047418311 -0.028022304 0.35732836
-0.041853558 -0.026072567 0.35734662
-0.0066532074 -0.026871765 0.35886902
-0.040817134 -0.023071265 0.35797769
-0.010816107 -0.02225706 0.35846302
-0.0072123199 -0.022173738 0.35711944
-0.0041069197 -0.021235324 0.35535181
0.038629163 -0.11041223 0.36250734
0.041197754 -0.11039875 0.36226031
0.0077545433 -0.10895889 0.36495182
0.014448739 -0.10589238 0.36054134
0.018720798 -0.10601719 0.36085498
0.023413181 -0.10693877 0.36076891
0.027943902 -0.10781872 0.3612828
0.031939283 -0.10777217 0.36219677
0.036714822 -0.10812528 0.36103991
0.0093358252 -0.10054581 0.36055481
0.012992662 -0.10246047 0.3618004
0.017975023 -0.10284747 0.36352974
0.022887647 -0.10338579 0.36322844
0.027294472 -0.1031784 0.36438176
0.031930622 -0.10280783 0.36340019
0.03675339 -0.1030985 0.36233741
0.041803826 -0.10291456 0.36135936
0.045797352 -0.10235919 0.36033842
0.0078598624 -0.097432002 0.36124393
0.011948491 -0.097720705 0.36309132
0.019696239 -0.09896598 0.3642506
0.02314174 -0.099065244 0.36452579
0.032585755 -0.099139974 0.36442396
0.037083395 -0.098689452 0.36393347
0.04193883 -0.098106638 0.36336571
0.0468679 -0.097682692 0.36142632
0.051119633 -0.096817106 0.36116922
0.0086391 -0.09219458 0.36077762
0.012553705 -0.092117757 0.36264661
0.019676805 -0.091177627 0.36487141
0.036802623 -0.09126313 0.36462605
0.042993121 -0.093031198 0.36427835
0.04700559 -0.092840619 0.36325398
0.050970938 -0.092261486 0.36206314
0.078640379 -0.090433516 0.36454472
0.082996227 -0.092455685 0.36231348
0.012686439 -0.088380545 0.36075458
0.022983311 -0.087301753 0.36327726
0.028092254 -0.087334774 0.36327419
0.034093745 -0.087466285 0.36360055
0.037095476 -0.088743471 0.36437616
0.042254027 -0.088216178 0.36316559
0.04696865 -0.089357011 0.36345661
0.050982129 -0.088915482 0.36135924
0.081769332 -0.087493174 0.36302686
0.082618527 -0.077200547 0.36039984
0.077973545 -0.073385701 0.36382246
0.08166004 -0.073390469 0.36190042
-0.031179449 -0.066343561 0.36146775
0.079720721 -0.065703377 0.3646127
0.081167594 -0.06719292 0.36301094
-0.031983856 -0.064575434 0.36106399
-0.0092890011 -0.057317764 0.36365896
-0.0092422813 -0.051969983 0.36192256
0.073507629 -0.052083485 0.36085248
0.073860012 -0.049787119 0.36271194
-0.04951676 -0.035829656 0.36037138
-0.043103471 -0.038622148 0.36302507
-0.0075265924 -0.039218087 0.36101037
-0.0075706816 -0.032663681 0.36289939
0.072070941 -0.033619147 0.36305428
-0.04324666 -0.02941896 0.36433908
-0.010868626 -0.025705514 0.36010867
-0.0075381594 -0.026643429 0.36138433
-0.046220977 -0.02242602 0.36104223
0.02169895 -0.11165296 0.36750007
0.044633772 -0.11258052 0.36920097
0.031972878 -0.1077098 0.36606371
0.014595795 -0.10008875 0.3652187
0.016316794 -0.10013419 0.36535728
0.024935359 -0.10195662 0.3652392
0.027534816 -0.10031745 0.3656995
0.03014883 -0.10046511 0.36610955
0.01463154 -0.097719923 0.36635587
0.017706959 -0.097453438 0.36595854
0.02239264 -0.096107237 0.36681387
0.026955431 -0.096916333 0.36719766
0.031242818 -0.096548378 0.36590052
0.036673486 -0.095917553 0.36618906
0.0404003 -0.095082708 0.36553866
0.014584104 -0.094802439 0.36538655
0.018060124 -0.093153723 0.36654472
0.023018116 -0.092326529 0.36737362
0.027515648 -0.092514589 0.3664791
0.032077234 -0.092277192 0.36748603
0.037013989 -0.092806719 0.366528
0.040968053 -0.092784896 0.36577281
0.081322014 -0.094132952 0.36815563
0.017153811 -0.089659527 0.36589444
0.024067037 -0.089891389 0.36670098
0.027466618 -0.089781851 0.36614105
0.031881791 -0.088418983 0.36764231
0.07931336 -0.089456305 0.36796817
0.08266484 -0.087234013 0.36719701
0.08131595 -0.082752235 0.36790699
0.081752568 -0.077402197 0.3671971
-0.026613109 -0.071017995 0.36814415
0.076591805 -0.071121797 0.36591023
0.08095973 -0.070205055 0.36992532
-0.029939868 -0.069070905 0.36693773
0.07675226 -0.066956624 0.36709476
-0.03507692 -0.06391947 0.36697173
-0.0093266843 -0.055012774 0.36529699
0.080476664 -0.056808397 0.36885607
-0.0093893297 -0.050208557 0.36758825
-0.0093980152 -0.047732949 0.36826274
0.075028166 -0.045403264 0.36875546
-0.0094264662 -0.040133376 0.36940175
0.074719347 -0.040069733 0.36741713
0.075216144 -0.042063568 0.36978859
-0.0093719382 -0.033083394 0.36749941
0.072771937 -0.031377677 0.36662996
-0.04208491 -0.028079344 0.36904439
-0.0084818397 -0.028684154 0.3659783
0.018353783 -0.11241543 0.37011293
0.082071856 -0.091475345 0.37219402
0.079939 -0.088409983 0.37117678
0.080181815 -0.086922288 0.3725991
0.079764105 -0.079456002 0.37162417
0.081299871 -0.073949113 0.37389815
0.07875675 -0.066199154 0.37259936
0.081004024 -0.065719277 0.37473398
-0.037243735 -0.061248843 0.37167493
0.081597105 -0.061110042 0.37372458
-0.040828548 -0.056208692 0.37279195
-0.039109305 -0.059712663 0.37293473
0.078858837 -0.057015195 0.3723523
0.078990117 -0.054204851 0.3732006
-0.0095055876 -0.045661177 0.37235561
0.076068766 -0.048659861 0.37372023
-0.043945834 -0.041965466 0.37013406
-0.0095369685 -0.044088375 0.37379172
0.077710785 -0.042472523 0.37332985
-0.0095029073 -0.036995962 0.37252754
0.075306937 -0.038644809 0.37036633
-0.044001207 -0.032524988 0.37071371
-0.0094602555 -0.029925294 0.37080109
0.088764787 -0.092036158 0.37741148
0.080733381 -0.085740201 0.37539104
0.086219966 -0.087677449 0.37504122
0.080732211 -0.083079971 0.37579396
-0.029067129 -0.071114436 0.37787268
-0.023673333 -0.074289732 0.37600753
0.080806859 -0.073386677 0.37731445
-0.037813384 -0.060424052 0.37740713
0.079219781 -0.061106928 0.37956733
0.08060348 -0.062575042 0.37740636
-0.039517645 -0.058580201 0.37687454
0.078476146 -0.052592605 0.37652934
0.080876 -0.051236309 0.37949368
0.078588665 -0.048251282 0.37733096
0.081580177 -0.079471909 0.3803359
0.081848815 -0.071638286 0.38248485
0.079940289 -0.065253921 0.38272864
0.083270989 -0.065054707 0.38117784
0.079341263 -0.062980883 0.38003385
0.081270382 -0.063094012 0.38050079
-0.040142991 -0.057713721 0.38287315
0.079658017 -0.05965621 0.38182861
0.083359398 -0.056156006 0.3822951
0.079273574 -0.045109697 0.38078561
-0.043765012 -0.043504082 0.38369697
0.086162761 -0.067708924 0.38571939
0.08496315 -0.055404872 0.3897391
0.082566172 -0.047781534 0.38764131
0.087748237 -0.067103796 0.3930169
