# .PCD v0.7 - Point Cloud Data file format
VERSION 0.7
FIELDS x y z
SIZE 4 4 4
TYPE F F F
COUNT 1 1 1
WIDTH 1397
HEIGHT 1
VIEWPOINT 0 0 0 1 0 0 0
POINTS 1397
DATA ascii
-0.24094218 -0.10980152 0.63966727
-0.23812662 -0.10994689 0.64153314
-0.23334245 -0.10915354 0.63803792
-0.23015107 -0.10911503 0.63880247
-0.22634007 -0.10877712 0.63778949
-0.22366831 -0.10896339 0.63995034
-0.21964154 -0.10850643 0.63820803
-0.21626897 -0.10836363 0.63826638
-0.2126089 -0.1080594 0.63736981
-0.20952024 -0.10804036 0.63813156
-0.2062546 -0.10793838 0.63838142
-0.2029438 -0.10781842 0.63837951
-0.19953515 -0.10762004 0.63803303
-0.19562043 -0.10713772 0.6359567
-0.19267868 -0.10720143 0.63699579
-0.18915737 -0.10691772 0.63609064
-0.18599397 -0.10683843 0.63623577
-0.18220402 -0.10640127 0.63424623
-0.17967772 -0.10669834 0.63661158
-0.17651166 -0.10659736 0.63670421
-0.17270228 -0.1061048 0.63431203
-0.16970682 -0.10611501 0.6349225
-0.16604313 -0.10569876 0.63295853
-0.16295029 -0.10563577 0.63308704
-0.15928657 -0.10521203 0.63093013
-0.15601417 -0.1049995 0.63013756
-0.1531221 -0.10505191 0.63091362
-0.1495122 -0.1046026 0.62865448
-0.14505437 -0.10354248 0.62271768
nan nan nan
nan nan nan
nan nan nan
nan nan nan
-0.093339741 -0.074112773 0.44694945
-0.090160228 -0.073246464 0.44187713
-0.086366773 -0.071812876 0.43346009
-0.083824851 -0.071388252 0.43104491
-0.081569664 -0.071177252 0.4299728
-0.078376457 -0.070128404 0.4237552
-0.075643092 -0.069431812 0.41974264
-0.073461853 -0.069229484 0.41868919
-0.071233481 -0.068982072 0.41728261
-0.06947504 -0.069160201 0.41852942
-0.066906564 -0.068543822 0.41486228
-0.064669907 -0.068225332 0.41307548
-0.062636293 -0.068120524 0.41256857
-0.060444772 -0.067828618 0.41084984
-0.058461301 -0.067758173 0.41053706
-0.056507781 -0.06770175 0.41029617
-0.054559357 -0.067661792 0.41015482
-0.052384015 -0.067325428 0.40820333
-0.050304886 -0.06711968 0.40695345
nan nan nan
nan nan nan
nan nan nan
nan nan nan
-0.040955335 -0.06735272 0.40871492
-0.039347075 -0.067868911 0.41187114
-0.037495591 -0.067994393 0.41265652
-0.035682 -0.068190277 0.41393435
-0.033814777 -0.068337515 0.41482636
-0.03194622 -0.068483822 0.41579095
-0.030295977 -0.06912896 0.41969296
-0.028389487 -0.069253147 0.4204981
-0.026756478 -0.070110418 0.4257552
-0.024854414 -0.070341431 0.42718357
-0.022878265 -0.070382439 0.42747137
-0.021088863 -0.071057975 0.43158665
-0.019157646 -0.071394786 0.4336448
-0.017271919 -0.071941532 0.43696469
-0.015326564 -0.072348997 0.43943855
-0.013505655 -0.0736169 0.44719496
-0.011624758 -0.074885398 0.45488551
-0.0097052017 -0.076505743 0.4647713
nan nan nan
nan nan nan
nan nan nan
nan nan nan
0.0015508714 -0.10581715 0.64285606
0.0046520969 -0.10858974 0.65967959
0.0074306563 -0.10434289 0.63386047
0.010208177 -0.10248625 0.62266028
0.01313112 -0.10275102 0.62421101
0.016067075 -0.10286022 0.62491447
0.018916588 -0.10258538 0.62316757
0.021814538 -0.10259197 0.62324768
0.024751659 -0.10267498 0.62375337
0.027695388 -0.102852 0.62471282
0.030562621 -0.10271899 0.623887
0.033420924 -0.10257831 0.62301469
0.036241781 -0.10233199 0.62157923
0.039149988 -0.10236412 0.62171799
0.041999951 -0.10224736 0.62095249
0.044906758 -0.10225338 0.62103039
0.047737364 -0.10215142 0.62031639
0.050718766 -0.10230502 0.62125188
0.053512212 -0.10213518 0.6201064
0.056265455 -0.10185392 0.61838233
0.059200838 -0.10194311 0.61888814
0.062084842 -0.10195531 0.6188097
0.064958245 -0.10195904 0.61877728
0.067819014 -0.10191129 0.61841321
0.070679672 -0.10186414 0.61805278
0.073424213 -0.10168351 0.61686331
0.076390639 -0.10180929 0.61751348
0.079166122 -0.10165869 0.61660373
0.082027093 -0.10163975 0.61635685
0.084977746 -0.10172687 0.61675286
0.087761886 -0.10163523 0.61602646
0.090614982 -0.10158346 0.61565846
0.09329024 -0.10137821 0.61424398
0.096066929 -0.10128983 0.61349952
0.099237032 -0.10158789 0.61521178
0.10204948 -0.1015293 0.61464727
0.10480984 -0.1014208 0.61387795
0.10759893 -0.10134318 0.61315995
0.11046661 -0.10133809 0.61297798
0.11315681 -0.10119089 0.6118201
0.11611079 -0.10125986 0.61206645
0.11893909 -0.10123499 0.61160964
0.12179798 -0.10123168 0.61139929
0.12461364 -0.10119437 0.61084777
0.12718721 -0.10096086 0.60920942
0.13030079 -0.10115862 0.61005688
0.13290848 -0.10095729 0.60859412
0.13565554 -0.10088491 0.60779303
0.13814726 -0.10060871 0.60584235
0.14114551 -0.10072201 0.60612142
0.14415754 -0.10085246 0.60650241
0.14705198 -0.1008632 0.60623986
0.15017545 -0.10104469 0.60688663
0.15281536 -0.10091143 0.60564238
0.15563738 -0.10086785 0.60501403
0.1586314 -0.10096484 0.6051122
0.16146412 -0.10094409 0.60448468
0.16391923 -0.10070261 0.60253638
0.16647199 -0.10052703 0.60094535
0.16926174 -0.10048531 0.60015535
0.1728977 -0.100949 0.60236198
0.17538978 -0.10073938 0.60054904
0.17799748 -0.10060896 0.59907532
0.18089522 -0.10063481 0.59862828
0.18388875 -0.10071987 0.59839791
0.18704179 -0.10087887 0.59870046
0.18987675 -0.10087202 0.59790236
0.19256479 -0.10076852 0.59662718
0.19610988 -0.10113831 0.59801745
0.19852702 -0.1009137 0.59587228
0.20176241 -0.10110493 0.59618253
0.20460986 -0.10109859 0.59530646
0.2075507 -0.10113741 0.59465683
0.21038124 -0.10111225 0.59364998
0.21364483 -0.10130183 0.59386325
0.21638277 -0.1012308 0.59252769
0.2194882 -0.10135932 0.59224528
0.22272551 -0.10151621 0.5922007
0.22577442 -0.10160338 0.59163272
0.22820826 -0.1013955 0.58944196
0.23152989 -0.10160142 0.5895232
0.23468724 -0.10171152 0.58915848
0.23817769 -0.10198069 0.58955806
0.24127917 -0.10207889 0.58896512
0.24427158 -0.10210949 0.58807433
0.24735206 -0.10219499 0.58736515
0.25033176 -0.1022257 0.58643299
0.25373787 -0.10243915 0.58643305
0.25719959 -0.10265813 0.58653307
0.26024923 -0.1027091 0.58568949
0.26322454 -0.10273725 0.58467484
0.26611358 -0.10273103 0.58346385
0.26925349 -0.10282789 0.58283687
0.27258039 -0.10297304 0.58257294
0.27593407 -0.10313915 0.58242351
0.27932882 -0.10331614 0.58231103
0.28224742 -0.10330898 0.58127028
0.28482834 -0.10318565 0.57957608
0.28773612 -0.10318799 0.57858771
0.29115334 -0.10336415 0.57870311
0.29352048 -0.10316017 0.57678097
0.29652849 -0.1031952 0.57621491
0.30023503 -0.10345516 0.57701331
0.30204517 -0.10308113 0.57427478
0.30468699 -0.10298657 0.57322633
0.30745038 -0.10292519 0.57249379
0.3106302 -0.10302006 0.572649
0.31356555 -0.10302292 0.57240337
0.31614366 -0.1029258 0.57162166
-0.3821938 -0.11446638 0.65417713
-0.37703192 -0.11391731 0.6506145
-0.37367934 -0.11391873 0.65022337
-0.3710008 -0.1141274 0.65117168
-0.36808258 -0.11424448 0.65175277
-0.36313844 -0.11375339 0.64888787
-0.35957479 -0.11367646 0.64853972
-0.35613561 -0.1136326 0.64855564
-0.35286942 -0.113639 0.64898777
-0.34950313 -0.11362438 0.6493212
-0.3461192 -0.1136151 0.6497066
-0.34232521 -0.1134434 0.64942044
-0.33846545 -0.11328148 0.64910227
-0.33414513 -0.11292764 0.64791554
-0.33020735 -0.11271814 0.64757371
-0.32686919 -0.11269418 0.64842325
-0.32317382 -0.11255912 0.64865303
-0.31851885 -0.11206733 0.64692599
-0.31451526 -0.11181136 0.6465739
-0.31114522 -0.11178418 0.6475184
-0.30590004 -0.11106809 0.64461362
-0.30231151 -0.11092164 0.6450882
-0.29901418 -0.11091787 0.6462841
-0.29471269 -0.11051452 0.64525229
-0.29071406 -0.11021661 0.64480543
-0.28655913 -0.10986 0.64400691
-0.28287411 -0.10966369 0.64426875
-0.27840468 -0.10917703 0.64264542
-0.27471802 -0.10896745 0.6427719
-0.27078068 -0.10868259 0.64229941
-0.26700801 -0.10842704 0.64209938
-0.26309171 -0.10811519 0.64155912
-0.25959551 -0.1079919 0.64198393
-0.25596893 -0.10777976 0.64196092
-0.25133201 -0.10714078 0.63938576
-0.24811009 -0.10711771 0.64035183
-0.24428505 -0.10679937 0.63963306
-0.24053338 -0.10650536 0.63903213
-0.23682211 -0.10625231 0.63854462
-0.23322994 -0.10601552 0.63825494
-0.23013778 -0.10602371 0.63926929
-0.22708803 -0.10605137 0.64040089
-0.22298184 -0.1055691 0.63844872
-0.21968171 -0.10544889 0.63876486
-0.21638848 -0.1053495 0.63905776
-0.21302769 -0.10520297 0.63906229
-0.20951071 -0.10497332 0.63853753
-0.20623685 -0.1048806 0.63869572
-0.20280489 -0.10468151 0.63830894
-0.19938126 -0.10448007 0.63790441
-0.19609098 -0.10436336 0.63784713
-0.19262025 -0.1041235 0.63716012
-0.18925852 -0.10395573 0.63676476
-0.18603501 -0.10383779 0.63679796
-0.18323173 -0.10396258 0.6381526
-0.17938474 -0.10349982 0.63589835
-0.1763456 -0.10349389 0.63644767
-0.17321621 -0.10343242 0.63661385
-0.16995391 -0.1032742 0.63618296
-0.16612506 -0.1027709 0.6336022
-0.16304247 -0.10271777 0.63377327
-0.15982068 -0.10255883 0.63326997
-0.15641497 -0.10228525 0.63205647
-0.15275979 -0.10183319 0.62971628
-0.14965472 -0.1017556 0.62956536
-0.14665511 -0.10172562 0.62981188
-0.14181656 -0.10039099 0.6219551
nan nan nan
nan nan nan
nan nan nan
-0.094475888 -0.07290671 0.45258152
-0.090173654 -0.071185321 0.44214091
-0.08698684 -0.070285589 0.43669513
-0.083617106 -0.069186822 0.43007916
-0.081019655 -0.068687372 0.42718357
-0.078486554 -0.068242222 0.42452633
-0.075930215 -0.067725837 0.42149344
-0.073555522 -0.067360125 0.41931379
-0.07147108 -0.067244507 0.41875881
-0.069391072 -0.067125186 0.418167
-0.067336284 -0.067035623 0.41767842
-0.064637832 -0.066265404 0.4130156
-0.062584095 -0.066127561 0.41227928
-0.060578477 -0.066058718 0.41189247
-0.058566824 -0.065948658 0.41131577
-0.056568023 -0.065859325 0.41085505
-0.054580696 -0.065775745 0.41042992
-0.052556753 -0.065638505 0.40965682
-0.05032539 -0.065249301 0.40721849
nan nan nan
nan nan nan
nan nan nan
nan nan nan
-0.040954921 -0.065444089 0.40876213
-0.039243214 -0.065770961 0.41082299
-0.037472408 -0.066011846 0.41242689
-0.03564069 -0.06620086 0.41361421
-0.033841837 -0.066447914 0.41515139
-0.032021407 -0.066690817 0.41674331
-0.030226316 -0.067019619 0.41885963
-0.028436692 -0.067418061 0.42131719
-0.026601188 -0.067741916 0.42337716
-0.024836471 -0.068310209 0.42696527
-0.023001833 -0.068766035 0.42983761
-0.021075472 -0.069005817 0.4313598
-0.019154273 -0.069360465 0.43358678
-0.017389765 -0.07037548 0.43992838
-0.015462836 -0.070961654 0.44367498
-0.013495006 -0.07145308 0.44671643
-0.011614077 -0.072749674 0.45479095
-0.009711476 -0.074330136 0.46472856
nan nan nan
nan nan nan
nan nan nan
nan nan nan
nan nan nan
nan nan nan
0.0074332603 -0.10147675 0.63455331
0.01021484 -0.099719964 0.62352926
0.013143072 -0.099856459 0.62432486
0.016014803 -0.099692628 0.62334388
0.018921426 -0.099674672 0.62315458
0.021818297 -0.099685714 0.62324774
0.024746137 -0.099736765 0.62359107
0.0276531 -0.09976729 0.62378681
0.030598927 -0.099915259 0.62469751
0.033471514 -0.099815808 0.62404191
0.036320042 -0.099610224 0.62272292
0.039177991 -0.099505156 0.62201321
0.042089641 -0.099538915 0.62217122
0.044823658 -0.099196121 0.6200574
0.047874607 -0.09952829 0.62204212
0.050753865 -0.099464476 0.62167221
0.053519119 -0.099246986 0.6202023
0.056419555 -0.099268384 0.6203264
0.059239652 -0.09914948 0.6195544
0.062097415 -0.099117391 0.61920488
0.064957783 -0.099071205 0.61886811
0.067860909 -0.099088088 0.61890614
0.070741713 -0.099069193 0.61872053
0.073582791 -0.099021196 0.618334
0.076415114 -0.098962575 0.61786193
0.07911925 -0.09872622 0.61640042
0.081865922 -0.098572858 0.61531788
0.085037455 -0.098921508 0.61734957
0.087833367 -0.098822162 0.6165849
0.090633683 -0.098733194 0.61598581
0.093308352 -0.098532699 0.61455208
0.096146584 -0.098509423 0.61422396
0.099202462 -0.098682567 0.61522084
0.10215724 -0.098764211 0.61550754
0.10492387 -0.098643094 0.61465049
0.10771815 -0.098587535 0.61406279
0.11042983 -0.098459221 0.61300296
0.1133266 -0.098477043 0.61297286
0.11631776 -0.098590389 0.61339772
0.11914122 -0.098538429 0.61291367
0.12184626 -0.098409839 0.61179465
0.12439173 -0.098155402 0.61001384
0.12754981 -0.098386757 0.61113203
0.1304858 -0.098433957 0.61120576
0.13302802 -0.098205246 0.60942745
0.13565959 -0.09802983 0.6080814
0.13832098 -0.097899638 0.606897
0.14122523 -0.097922318 0.60676044
0.14408718 -0.097932301 0.60640615
0.14748681 -0.09831164 0.60833716
0.15030169 -0.098260798 0.60770458
0.15330662 -0.098363347 0.60788125
0.15571517 -0.098072931 0.60562986
0.15860164 -0.098099135 0.60529584
0.16143984 -0.098081946 0.60471302
0.16397232 -0.097893059 0.6030336
0.16651165 -0.097713314 0.601412
0.16947101 -0.097769521 0.60122371
0.17254427 -0.097898148 0.60145992
0.17516844 -0.097770683 0.60012239
0.17817782 -0.097857617 0.60006189
0.18102145 -0.097859882 0.59936279
0.18419455 -0.098027781 0.59979516
0.18689348 -0.097950079 0.59856659
0.18982451 -0.097984575 0.59814203
0.19283211 -0.098065354 0.59786099
0.19557767 -0.097992502 0.5967418
0.19925733 -0.098410942 0.59847337
0.20155571 -0.098135024 0.59598076
0.20471779 -0.098280892 0.59603101
0.20743325 -0.098210767 0.594751
0.21011642 -0.098126903 0.59336936
0.21348943 -0.098373152 0.59384483
0.21639289 -0.098388761 0.59304285
0.2191581 -0.098332673 0.59176975
0.22255716 -0.098586433 0.59224164
0.2254605 -0.098588884 0.59129876
0.22849792 -0.098668218 0.59067917
0.23171684 -0.098803416 0.59048903
0.23489384 -0.098936744 0.59014797
0.23805124 -0.099039055 0.5897361
0.24123235 -0.099167839 0.58934253
0.2446644 -0.099395528 0.58951283
0.24770874 -0.099442519 0.58870524
0.25074312 -0.099503741 0.58784384
0.25398713 -0.099633798 0.58750331
0.25723344 -0.099773474 0.58705997
0.26016223 -0.099776044 0.58594412
0.26308385 -0.099782906 0.58481342
0.26647112 -0.099963881 0.58470041
0.26942626 -0.099980161 0.58362126
0.27268896 -0.10010327 0.58325964
0.27628613 -0.10034441 0.58356094
0.27958238 -0.10047866 0.58323568
0.28220168 -0.10037563 0.58153188
0.28465724 -0.10021036 0.57958484
0.28729513 -0.10011771 0.57805914
0.29019499 -0.10010301 0.57709843
0.29328701 -0.10016626 0.57658535
0.29581189 -0.10002848 0.57502896
0.29953524 -0.10028607 0.5758782
0.30209541 -0.10016394 0.57454455
0.30461249 -0.10004744 0.57326323
0.30774432 -0.10011735 0.57316375
0.31060785 -0.10009614 0.5726763
0.3141425 -0.10028573 0.57352859
0.3174417 -0.10040676 0.57400751
-0.37968901 -0.11039928 0.64974475
-0.37678888 -0.11053123 0.65004599
-0.37355527 -0.11056571 0.64995795
-0.37101695 -0.11078721 0.65110606
-0.36795217 -0.11087736 0.6515286
-0.36389798 -0.1106546 0.65027106
-0.36015856 -0.11054122 0.64967895
-0.35672808 -0.1105084 0.64971715
-0.35347325 -0.11053176 0.65021902
-0.34922478 -0.11022286 0.64894366
-0.34557259 -0.11011681 0.6488589
-0.34177125 -0.10997948 0.6486097
-0.33832198 -0.1099202 0.64908487
-0.33294612 -0.10923287 0.64586657
-0.32998478 -0.10935204 0.6474331
-0.3268334 -0.10940029 0.64868993
-0.32246515 -0.10904381 0.64756489
-0.31839207 -0.1087719 0.64706701
-0.31467828 -0.1086101 0.64735085
-0.31078857 -0.10838268 0.64721584
-0.3064639 -0.1080118 0.64621651
-0.30267119 -0.10782937 0.64633739
-0.29915899 -0.10772099 0.64703006
-0.29434535 -0.10715204 0.64492536
-0.29088968 -0.10706174 0.64569294
-0.28736091 -0.10695799 0.64635468
-0.28222749 -0.10624728 0.64331645
-0.2782079 -0.1059222 0.64271003
-0.27445585 -0.10571424 0.64267617
-0.27088195 -0.10554876 0.64300543
-0.26713812 -0.10532089 0.64294958
-0.26357278 -0.10515875 0.64324713
-0.25984761 -0.10494092 0.64306819
-0.25605726 -0.10467789 0.64271629
-0.25190979 -0.10426054 0.6413874
-0.24797055 -0.10393225 0.64044571
-0.24430725 -0.10369997 0.64019877
-0.24038459 -0.10334113 0.63914275
-0.23661886 -0.10306235 0.6384443
-0.2333373 -0.10298925 0.63897425
-0.23024383 -0.10297675 0.6400094
-0.22725202 -0.103031 0.64130813
-0.22320555 -0.10260137 0.63957012
-0.21975197 -0.10242571 0.6393885
-0.21626788 -0.10223989 0.63913989
-0.2129226 -0.1021047 0.6391837
-0.2094387 -0.10189752 0.63873208
-0.2060906 -0.10175063 0.63865507
-0.20277645 -0.10161574 0.63865072
-0.19931753 -0.10142308 0.63810909
-0.19628395 -0.10142232 0.63890284
-0.19304807 -0.10131469 0.6389811
-0.18936454 -0.10097389 0.63747597
-0.18623728 -0.10093322 0.63782161
-0.18281431 -0.10070644 0.63711864
-0.1793143 -0.10043722 0.63597322
-0.17602108 -0.10028682 0.63557738
-0.17281571 -0.10018066 0.63546008
-0.16983163 -0.10018787 0.63604051
-0.16653965 -0.10002113 0.63547492
-0.16321571 -0.09982723 0.63475472
-0.1600311 -0.099698797 0.6344083
-0.15650082 -0.0993573 0.63270354
-0.15321086 -0.099176593 0.63187188
-0.15013057 -0.099104628 0.63185966
-0.14659712 -0.098722965 0.6298306
-0.14235161 -0.097834595 0.62456322
-0.13648987 -0.095792539 0.61179507
nan nan nan
nan nan nan
-0.094843201 -0.071060725 0.45453343
-0.09028165 -0.069186635 0.4427861
-0.086819269 -0.068110228 0.43603176
-0.083850503 -0.067362666 0.43145218
-0.081440471 -0.067036852 0.42957047
-0.078381985 -0.066159353 0.42405096
-0.076125376 -0.065926693 0.42273453
-0.073966384 -0.065768465 0.42180935
-0.071474463 -0.065294094 0.41892672
-0.06929864 -0.065088421 0.41775313
-0.06730108 -0.065054663 0.41759846
-0.064817101 -0.064519294 0.41429341
-0.062839128 -0.06446863 0.41408643
-0.060612362 -0.064176284 0.41224387
-0.058657836 -0.064132914 0.41207004
-0.056677502 -0.064070217 0.41175896
-0.054750349 -0.064063549 0.41180781
-0.052752383 -0.063968666 0.41127652
-0.050463248 -0.063498311 0.40831777
nan nan nan
nan nan nan
nan nan nan
nan nan nan
-0.041100733 -0.063764706 0.41025609
-0.039241839 -0.063860416 0.41096839
-0.037533045 -0.064212389 0.41324791
-0.035673767 -0.064328268 0.41399533
-0.033920072 -0.064667389 0.41624954
-0.032225206 -0.065178081 0.41952538
-0.030317482 -0.065280177 0.42024195
-0.028428465 -0.06543763 0.42130199
-0.02670165 -0.066017531 0.42508236
-0.024805496 -0.066235952 0.42650938
-0.023020718 -0.066826612 0.43026119
-0.021120524 -0.067131184 0.43231574
-0.019179339 -0.067416251 0.43415901
-0.017431732 -0.068473041 0.44095874
-0.015482266 -0.068970203 0.44415438
-0.01358388 -0.069865905 0.44999206
-0.011585844 -0.070411667 0.453473
-0.0096913502 -0.072054327 0.46409526
nan nan nan
nan nan nan
nan nan nan
nan nan nan
0.0015559233 -0.10027726 0.64588767
0.0046767588 -0.10266404 0.66124058
0.0074576186 -0.098656438 0.6354087
0.010218451 -0.09690176 0.62419307
0.013132771 -0.096924081 0.62427902
0.016040089 -0.096896015 0.62404042
0.018924601 -0.096839227 0.62372172
0.021847779 -0.096878417 0.62400192
0.024740489 -0.096879356 0.62389225
0.027673401 -0.096934095 0.62425321
0.030594656 -0.096998967 0.62466019
0.033531353 -0.097038001 0.6249007
0.03641114 -0.0969676 0.62439793
0.039262995 -0.096816562 0.62350023
0.042046469 -0.09654332 0.62169123
0.044982407 -0.096630305 0.62218279
0.047763135 -0.096410766 0.62080532
0.050722804 -0.096535087 0.62149876
0.05365805 -0.096580632 0.62180889
0.056464303 -0.09644942 0.62083781
0.059356913 -0.096450172 0.62082094
0.062144306 -0.09628424 0.61973119
0.065055266 -0.09631259 0.61987275
0.067931741 -0.096286371 0.61964375
0.070775427 -0.096214555 0.61912143
0.073718779 -0.096300691 0.61959612
0.076451823 -0.096113056 0.61829019
0.079103813 -0.095838048 0.61642247
0.082206227 -0.096106201 0.61802912
0.085032932 -0.096042179 0.61747998
0.08793962 -0.096067205 0.61750335
0.090837426 -0.096079901 0.61755186
0.093632571 -0.095982529 0.61674988
0.096387237 -0.095867574 0.61583513
0.099291898 -0.095882654 0.61586022
0.10233237 -0.096058458 0.61677402
0.10505401 -0.095913842 0.61563033
0.10769031 -0.095696911 0.61412734
0.11042956 -0.095579945 0.61312348
0.11322819 -0.095514044 0.61257088
0.11623203 -0.095636629 0.61308396
0.11930562 -0.095788188 0.61388624
0.12193788 -0.09561827 0.61250454
0.12459928 -0.095442668 0.61119127
0.12720363 -0.095263317 0.60973132
0.13007732 -0.095254064 0.60944521
0.13292819 -0.095259421 0.60912901
0.13557787 -0.095121786 0.60789877
0.13853802 -0.095182322 0.60803866
0.14085224 -0.094835386 0.60543436
0.14371115 -0.094828241 0.60510361
0.14728062 -0.095298089 0.60769182
0.14926688 -0.094755858 0.60380703
0.15282366 -0.095198773 0.60618055
0.15589674 -0.095320709 0.60661095
0.15862897 -0.095250838 0.60569715
0.16132843 -0.09515132 0.60457599
0.16403447 -0.095068939 0.60356414
0.16683707 -0.095043063 0.60289198
0.16972911 -0.095066853 0.6025151
0.17251538 -0.095019661 0.60166889
0.17542681 -0.095051043 0.60131967
0.17835218 -0.095106967 0.60096383
0.18110237 -0.095049232 0.60003096
0.1841476 -0.095134526 0.59996164
0.18698297 -0.09513849 0.59923685
0.18994527 -0.095195651 0.59884638
0.19270489 -0.095140643 0.59785241
0.19634087 -0.095522448 0.59945881
0.1992947 -0.095574945 0.59899473
0.20103449 -0.095042244 0.59482795
0.20415637 -0.095148735 0.59478641
0.20729312 -0.095296904 0.59474057
0.21039066 -0.095403828 0.59453654
0.21331485 -0.095421098 0.59377241
0.21639512 -0.095514886 0.59344399
0.2193594 -0.095555171 0.59278154
0.22261445 -0.095730074 0.59281117
0.22556356 -0.095751099 0.59198701
0.22856592 -0.095812984 0.5912739
0.23171248 -0.095921554 0.5909481
0.23506726 -0.096123725 0.59107453
0.23784998 -0.0960899 0.58970857
0.24125828 -0.096286938 0.58987802
0.24449259 -0.096429877 0.58957171
0.24771287 -0.096544303 0.58918858
0.25139773 -0.096854322 0.58985353
0.25429305 -0.09683679 0.58864027
0.25712854 -0.096823916 0.58731532
0.25978655 -0.096725464 0.5855726
0.26283616 -0.096772932 0.58469367
0.26646844 -0.097038321 0.58512717
0.26959056 -0.097113788 0.58441085
0.27278203 -0.097219005 0.58385104
0.27660358 -0.097530857 0.58462626
0.27953598 -0.097532056 0.5835349
0.28219593 -0.097445212 0.58191681
0.28465587 -0.097277857 0.57993871
0.28726146 -0.097168714 0.57828933
0.28996971 -0.097108275 0.57695025
0.29279098 -0.097078599 0.57591194
0.29582819 -0.097111993 0.57536459
0.29928097 -0.097284339 0.57563734
0.30225763 -0.097311035 0.57506531
0.30544785 -0.097402558 0.57499254
0.30809337 -0.097310632 0.57397389
0.31064931 -0.097182214 0.57287836
0.31345358 -0.097148865 0.57234269
0.31536621 -0.096857883 0.57030934
-0.382254 -0.10781763 0.65402818
-0.37559411 -0.10686736 0.64789927
-0.37352648 -0.10724011 0.64981818
-0.37127012 -0.1075502 0.65152025
-0.36797503 -0.10756157 0.6515758
-0.36272597 -0.10699935 0.64817971
-0.36033317 -0.10727722 0.65005726
-0.35754073 -0.10742717 0.6512987
-0.35322273 -0.10713465 0.64987868
-0.34929591 -0.10694402 0.64923483
-0.34528789 -0.10674264 0.64854485
-0.3417916 -0.10668548 0.64886576
-0.337051 -0.10622405 0.64688241
-0.33360267 -0.10618407 0.64746004
-0.32993186 -0.10605433 0.64764649
-0.32679322 -0.10610751 0.64894766
-0.32317638 -0.10599542 0.64937294
-0.31869772 -0.10560885 0.64811003
-0.31468204 -0.10534562 0.64773238
-0.31080475 -0.10513785 0.64766687
-0.30696389 -0.10494473 0.64770818
-0.30296054 -0.10469799 0.64739025
-0.29892904 -0.10442072 0.64701277
-0.29422137 -0.10390588 0.64513063
-0.2905848 -0.10376157 0.64551836
-0.28697494 -0.10360138 0.64593893
-0.28330421 -0.1034451 0.64624351
-0.27805203 -0.10267899 0.64281845
-0.27414975 -0.10242909 0.6424765
-0.27058926 -0.10227232 0.64282697
-0.2671032 -0.10214855 0.64335972
-0.2635515 -0.1019881 0.6436578
-0.25975734 -0.10175862 0.64333707
-0.25596941 -0.10150401 0.64298677
-0.25232196 -0.10129092 0.64287251
-0.24856833 -0.10105923 0.64247835
-0.24409005 -0.10049275 0.64006019
-0.24070144 -0.10038723 0.64041442
-0.23675574 -0.10003082 0.63929725
-0.23340607 -0.099932157 0.63964564
-0.2301584 -0.099844418 0.64019626
-0.22675885 -0.099717736 0.6403392
-0.22369018 -0.099734478 0.64138061
-0.2202964 -0.099594645 0.64139283
-0.21591212 -0.099005632 0.63850522
-0.212639 -0.098906212 0.63872689
-0.20959415 -0.098911002 0.6396203
-0.20600043 -0.098652475 0.63878769
-0.20210548 -0.098239139 0.63692605
-0.19974597 -0.09859097 0.63986951
-0.19654837 -0.098501392 0.64008343
-0.19318159 -0.098353364 0.63976073
-0.18955068 -0.098042041 0.63848549
-0.18615657 -0.097854152 0.63785577
-0.18309289 -0.097846225 0.6383974
-0.1795239 -0.097562008 0.63711381
-0.175796 -0.097147219 0.6350854
-0.17309277 -0.097325243 0.63677698
-0.16989306 -0.097212404 0.63656545
-0.16650778 -0.096997768 0.63566482
-0.16342886 -0.096943483 0.63579297
-0.15967865 -0.096492246 0.63329458
-0.15686254 -0.096617654 0.6344465
-0.15334198 -0.096283101 0.63268882
-0.15015323 -0.096146189 0.6322273
-0.14654648 -0.095729075 0.62990052
-0.14251509 -0.095029853 0.62556207
-0.13662122 -0.093010873 0.61263627
nan nan nan
nan nan nan
-0.095515497 -0.069410719 0.45786542
-0.090041198 -0.066936232 0.44177634
-0.086272672 -0.065655597 0.43344963
-0.083945431 -0.065420665 0.43209964
-0.081136435 -0.064788148 0.42812076
-0.07837414 -0.0641739 0.42415729
-0.076217033 -0.064020716 0.42331439
-0.074103259 -0.063920021 0.42273021
-0.07167042 -0.063503936 0.42013329
-0.069376171 -0.063201264 0.41827175
-0.067249969 -0.063050106 0.41732547
-0.065154679 -0.06290438 0.41648787
-0.062904641 -0.062606998 0.41463229
-0.060658231 -0.06227956 0.41257635
-0.059322469 -0.062908329 0.41684234
-0.057073917 -0.062590115 0.41473544
-0.055131793 -0.062581688 0.4147667
-0.052870881 -0.062195752 0.41228256
-0.050754055 -0.061954685 0.41074514
-0.048497763 -0.061531927 0.40800247
nan nan nan
nan nan nan
-0.042743988 -0.061453182 0.40768075
-0.041263487 -0.062106088 0.41203427
-0.03971995 -0.062700778 0.41600201
-0.037879016 -0.062847376 0.41705692
-0.036045231 -0.063056469 0.41844088
-0.034336921 -0.063505679 0.42150494
-0.03247162 -0.063687287 0.42268056
-0.030459827 -0.063597292 0.42214027
-0.02872193 -0.064104401 0.42555055
-0.026840754 -0.064354412 0.42716691
-0.024978209 -0.064709634 0.42955613
-0.02302612 -0.06483496 0.43040621
-0.021187505 -0.06537284 0.43399519
-0.019278025 -0.065734021 0.43639785
-0.017439416 -0.066485219 0.44146675
-0.015568994 -0.067254193 0.44655022
-0.013502912 -0.067348883 0.44715625
-0.011627366 -0.068583176 0.45540747
-0.0096930033 -0.069958821 0.46450418
nan nan nan
nan nan nan
nan nan nan
nan nan nan
0.0015562477 -0.097345293 0.64648128
0.0046528517 -0.099132158 0.6583277
0.0073734652 -0.094671413 0.62868494
0.010219076 -0.093896173 0.62347901
0.013117172 -0.093958244 0.62398058
0.016039275 -0.094037957 0.62443286
0.018949648 -0.094015703 0.62433594
0.021864997 -0.094015628 0.62436712
0.024761511 -0.094032034 0.62437963
0.027677733 -0.094027147 0.62435949
0.030609727 -0.094127327 0.62501782
0.033550564 -0.094177358 0.62532377
0.036718428 -0.094852693 0.62978137
0.039403379 -0.094270065 0.62586731
0.042174637 -0.093937933 0.62372547
0.044999376 -0.093774378 0.62257481
0.047899503 -0.093775898 0.6225009
0.050925877 -0.093988761 0.62393856
0.053656481 -0.093710996 0.62199134
0.056550294 -0.093678884 0.62178349
0.059407368 -0.093618616 0.62136948
0.062347051 -0.093703784 0.62179273
0.065178916 -0.093605563 0.62110764
0.068027213 -0.093535013 0.62058699
0.070897385 -0.09349592 0.62027508
0.073761217 -0.093473263 0.62005281
0.076665238 -0.093498424 0.62012845
0.079496086 -0.093410313 0.61945277
0.082250334 -0.093260676 0.61835003
0.085054874 -0.093194745 0.61778325
0.087908469 -0.093142949 0.6174376
0.090816803 -0.093166173 0.61744261
0.093733065 -0.093212642 0.61758196
0.096571617 -0.093179077 0.6171909
0.099376529 -0.093094438 0.61657
0.10216953 -0.093019731 0.61586803
0.10495175 -0.092935264 0.61522913
0.1075853 -0.092726722 0.61362255
0.11040446 -0.092698991 0.61319363
0.11328869 -0.092704736 0.61311322
0.11626743 -0.092802025 0.61349136
0.11909718 -0.092757463 0.61305857
0.12201859 -0.092801251 0.61304367
0.12477839 -0.09271621 0.61230481
0.12739304 -0.092532232 0.6107859
0.13045947 -0.092689306 0.61147934
0.13277751 -0.092298433 0.60870457
0.13554887 -0.092249341 0.60801923
0.13798621 -0.091958866 0.60587031
0.14149339 -0.092395596 0.60836571
0.14396855 -0.092165262 0.60644859
0.14715593 -0.092358083 0.60744238
0.1500942 -0.09241911 0.60742211
0.15269125 -0.092258595 0.60592651
0.15576766 -0.092398323 0.60640264
0.15861493 -0.092386916 0.60584718
0.16097154 -0.092085585 0.60353726
0.16383636 -0.0920977 0.60311747
0.16666147 -0.092086144 0.60254234
0.17007481 -0.092412591 0.60403073
0.17275864 -0.092308164 0.60280788
0.17549233 -0.092242248 0.60183716
0.17825721 -0.092193335 0.60095823
0.18124393 -0.092257671 0.60079759
0.18349835 -0.091971144 0.59820813
0.1871354 -0.092346236 0.60004699
0.18989389 -0.092310607 0.59906906
0.19269742 -0.092297025 0.59821498
0.19581854 -0.092404597 0.59825134
0.19876298 -0.09244518 0.59770727
0.20115261 -0.092238575 0.59556609
0.20365256 -0.092078291 0.5937075
0.20672452 -0.092176959 0.59349942
0.21012326 -0.092416123 0.59417313
0.21329069 -0.09254799 0.59415305
0.21624266 -0.09257523 0.59342051
0.21978068 -0.092876643 0.59431672
0.22288516 -0.092961758 0.59392995
0.22572753 -0.092963889 0.59286737
0.22849435 -0.092907734 0.59153867
0.23194785 -0.093147807 0.5919494
0.23487118 -0.093152098 0.59098327
0.23771334 -0.09314362 0.58979189
0.24057838 -0.093124591 0.58861881
0.24436302 -0.093476929 0.58966458
0.24762519 -0.093623541 0.58938658
0.25133863 -0.093915664 0.59014326
0.25465444 -0.094080828 0.58993256
0.25744402 -0.094023041 0.58844632
0.26028204 -0.094010539 0.58710039
0.26345655 -0.094098717 0.58650565
0.2664668 -0.094133481 0.58555627
0.26963618 -0.09422268 0.58492357
0.2730425 -0.094398327 0.58482373
0.276283 -0.09449321 0.58432293
0.27942622 -0.094565809 0.5836814
0.2823644 -0.094567411 0.58259994
0.28492013 -0.094454616 0.58079416
0.28756997 -0.094360769 0.57924867
0.29128653 -0.094627097 0.5798912
0.29398242 -0.094545096 0.57853836
0.29654098 -0.094432153 0.57697648
0.29987562 -0.094557188 0.57700944
0.30330026 -0.094718494 0.5772801
0.30621651 -0.094709873 0.576635
0.30974934 -0.094900385 0.57719952
0.31135279 -0.094497666 0.57429844
0.31365278 -0.094301231 0.57279485
0.31725878 -0.094512507 0.57378691
-0.38292703 -0.10467264 0.65503383
-0.37627646 -0.10375339 0.64900756
-0.37437084 -0.10414618 0.65121454
-0.3719734 -0.10442293 0.65274167
-0.36748034 -0.1040799 0.65070659
-0.36446142 -0.1041844 0.65132505
-0.36110353 -0.10416272 0.65148747
-0.35675204 -0.10386799 0.64996314
-0.3533361 -0.10385934 0.65022689
-0.34975368 -0.10376557 0.65028703
-0.34557012 -0.10352369 0.64927292
-0.34170103 -0.10334439 0.64893132
-0.33817688 -0.10327166 0.64930058
-0.33387101 -0.10297502 0.64823478
-0.33036986 -0.10291239 0.64880133
-0.32661083 -0.10275725 0.64892238
-0.32298779 -0.10264793 0.64935094
-0.31873029 -0.10234561 0.64853036
-0.314926 -0.10216759 0.64863199
-0.31116125 -0.10201244 0.64887369
-0.30682263 -0.10166289 0.64784956
-0.30220094 -0.10119543 0.64622581
-0.29875249 -0.10112198 0.64706641
-0.29481852 -0.10088781 0.64689595
-0.29034159 -0.10046006 0.64543134
-0.28697443 -0.10039636 0.64643914
-0.28311607 -0.1001792 0.64629287
-0.27879354 -0.099768713 0.64503092
-0.27443546 -0.099357493 0.64359158
-0.27050698 -0.099079795 0.64312613
-0.26703656 -0.098965287 0.64369327
-0.26346135 -0.098800689 0.64393085
-0.25968724 -0.098586157 0.64365548
-0.255687 -0.098249309 0.6427142
-0.25082624 -0.097577654 0.63954866
-0.24753624 -0.097520687 0.6402427
-0.24405007 -0.097370744 0.6404413
-0.24050002 -0.097203672 0.64036345
-0.23708569 -0.097066164 0.64059454
-0.23349899 -0.096874557 0.6403259
-0.23003012 -0.096705765 0.64030081
-0.22669454 -0.09660124 0.64055926
-0.22363216 -0.096620314 0.64161503
-0.21967399 -0.096237727 0.63997883
-0.21667278 -0.096278146 0.64115196
-0.21256907 -0.095812805 0.63891113
-0.20955095 -0.095829703 0.63988173
-0.20618115 -0.095683314 0.63973963
-0.2025563 -0.095432408 0.63873613
-0.19904394 -0.09519583 0.63794184
-0.19599399 -0.095185906 0.63866407
-0.19254135 -0.094996922 0.63802427
-0.18931538 -0.094903879 0.63800597
-0.18616349 -0.094834127 0.63826019
-0.18308294 -0.094808243 0.63865
-0.18005274 -0.0948174 0.63927525
-0.17591815 -0.094222985 0.6358068
-0.17274866 -0.09412314 0.63580847
-0.16978168 -0.09414041 0.63642246
-0.16667865 -0.094091482 0.63658828
-0.16321391 -0.093819685 0.63522398
-0.15966319 -0.09351787 0.63351661
-0.15654393 -0.093439542 0.63343763
-0.15335374 -0.093313448 0.63301343
-0.14986429 -0.092982665 0.63117802
-0.14658771 -0.092784368 0.63023943
-0.14330383 -0.09259142 0.62918001
-0.13768549 -0.090840816 0.61764342
nan nan nan
nan nan nan
-0.095927879 -0.067559533 0.46000755
-0.090544559 -0.065223962 0.44433388
-0.087695949 -0.064670563 0.4406825
-0.083920993 -0.063375004 0.4320628
-0.081410289 -0.062992528 0.42963549
-0.079078481 -0.062744722 0.42803308
-0.076387338 -0.062186871 0.42440516
-0.074173085 -0.061985329 0.42318004
-0.071729876 -0.061599284 0.4206039
-0.069537088 -0.061397117 0.4193722
-0.067437507 -0.061266411 0.41860151
-0.065612681 -0.061383408 0.41952312
-0.06365408 -0.06140269 0.41968757
-0.061460696 -0.061160948 0.41813082
-0.059602514 -0.061259586 0.41891381
-0.057449251 -0.061049584 0.41755989
-0.055228308 -0.060748555 0.41558269
-0.053272642 -0.060726162 0.4154982
-0.050996099 -0.060320586 0.41277853
-0.048819795 -0.060020156 0.41077772
nan nan nan
nan nan nan
-0.042819951 -0.059681885 0.40856311
-0.041642666 -0.060730502 0.41584668
-0.039788138 -0.060857005 0.41671684
-0.03799025 -0.061105736 0.41842398
-0.03615468 -0.061279777 0.41969568
-0.034267209 -0.061415486 0.42060301
-0.032471832 -0.061726563 0.42280078
-0.030601084 -0.061923578 0.42420471
-0.028601598 -0.061880596 0.42386177
-0.026847495 -0.062384441 0.42735457
-0.024935419 -0.062603533 0.42888388
-0.023152404 -0.063174516 0.43281093
-0.021250213 -0.063535579 0.43530005
-0.019352037 -0.063938811 0.43806466
-0.017379576 -0.064195812 0.43990695
-0.015572631 -0.065228499 0.44695798
-0.013547886 -0.065456077 0.44849175
-0.011631154 -0.066443674 0.45531473
-0.0097612496 -0.068198986 0.46740094
nan nan nan
nan nan nan
nan nan nan
nan nan nan
0.0015515926 -0.094110064 0.64498514
0.0046759304 -0.096601866 0.66204232
0.0073615015 -0.091650695 0.62807167
0.010225629 -0.09110631 0.62430257
0.013132145 -0.091077775 0.62420046
0.016047955 -0.091124646 0.6244446
0.018979823 -0.091215022 0.62511897
0.021840109 -0.091058232 0.62408012
0.024777921 -0.091167331 0.62473142
0.027690938 -0.091152541 0.62462729
0.030567795 -0.091086626 0.624192
0.033601012 -0.091401711 0.62632906
0.036537062 -0.091468506 0.62676454
0.039321277 -0.091170542 0.62468135
0.042264689 -0.091254622 0.62519658
0.045094289 -0.091076188 0.62404555
0.047952861 -0.090988956 0.62336785
0.050933741 -0.091109008 0.62422317
0.053850826 -0.091123253 0.62422132
0.05657782 -0.090840548 0.62229824
0.059492104 -0.090857513 0.6222766
0.062406514 -0.090880089 0.62242544
0.065324694 -0.090902478 0.62255365
0.068079852 -0.090702474 0.62113953
0.070926167 -0.09065678 0.62078214
0.07385651 -0.090691164 0.62095392
0.076737463 -0.090684474 0.62082499
0.079583287 -0.090613484 0.62025595
0.082348108 -0.090476982 0.61921924
0.085044496 -0.090274453 0.6177119
0.08793658 -0.090303354 0.61778814
0.090624243 -0.090105616 0.61629474
0.093426622 -0.090046749 0.61573237
0.096531659 -0.090252869 0.61709386
0.099380344 -0.090230197 0.61675918
0.10219908 -0.090180188 0.6162377
0.10492494 -0.090031862 0.61513758
0.10751963 -0.089814134 0.61345148
0.11039373 -0.089798167 0.61323661
0.11356821 -0.090052731 0.61473709
0.11627296 -0.089929573 0.61363935
0.11960895 -0.090267621 0.61580038
0.12205928 -0.089967854 0.61347854
0.12478615 -0.089846022 0.6124832
0.12759063 -0.089814544 0.61195314
0.13022156 -0.089663267 0.61060727
0.13292077 -0.089543588 0.60958886
0.13559829 -0.08943145 0.60847211
0.13863347 -0.089534119 0.60894752
0.14131767 -0.089427441 0.60784876
0.14451218 -0.089639999 0.60889983
0.14741454 -0.089676857 0.60875601
0.1500929 -0.089546368 0.60758781
0.15273291 -0.089426726 0.60634363
0.15564306 -0.089465342 0.60617256
0.15838642 -0.089396134 0.60525131
0.16099353 -0.089263171 0.60387987
0.16364487 -0.089157566 0.60269439
0.16670968 -0.089275688 0.60298222
0.1694985 -0.089243233 0.60227126
0.17325917 -0.089713797 0.60491347
0.17558314 -0.089435965 0.60250783
0.17811558 -0.089279927 0.60075617
0.18101297 -0.089298442 0.60032904
0.18408202 -0.089398548 0.60041052
0.1864302 -0.089168988 0.5981487
0.18983065 -0.089422114 0.59921539
0.19283582 -0.089493506 0.59895092
0.19591163 -0.089603446 0.59890378
0.19890065 -0.089642353 0.59849054
0.20157439 -0.089567028 0.59718478
0.20362136 -0.089210153 0.59398597
0.20738284 -0.089603394 0.59576148
0.21032128 -0.089634605 0.59510607
0.21354881 -0.089786023 0.59524661
0.21661344 -0.089884825 0.59488684
0.21959297 -0.089918703 0.59418589
0.22328237 -0.090245992 0.59541965
0.22605655 -0.090210997 0.59411114
0.22874542 -0.090123698 0.59258831
0.23164493 -0.090147249 0.59162676
0.23471896 -0.090210184 0.59103155
0.23824945 -0.090464026 0.59155452
0.24113874 -0.090471268 0.59044194
0.24328753 -0.090184174 0.58752012
0.24763429 -0.090728261 0.58986181
0.25118884 -0.090972915 0.59024632
0.25432113 -0.091041028 0.58956981
0.25752893 -0.091160685 0.58909613
0.26029012 -0.091094606 0.58752948
0.26350498 -0.09119343 0.58702552
0.26666531 -0.091297612 0.58638567
0.27007762 -0.091465063 0.5862956
0.27289984 -0.091410905 0.58487064
0.27634537 -0.091596723 0.58487123
0.27967554 -0.091720469 0.58457816
0.28231621 -0.091643482 0.58285731
0.28507933 -0.091579892 0.58147639
0.28836325 -0.091701955 0.58116561
0.29168859 -0.091826402 0.58097279
0.29432532 -0.091725014 0.57947618
0.29707792 -0.09167216 0.57828605
0.30067167 -0.091881953 0.57876986
0.30378491 -0.091932781 0.57837522
0.30692312 -0.091986164 0.57814109
0.30937934 -0.091845736 0.57668799
0.31228694 -0.09183009 0.57616466
0.3146483 -0.091664739 0.57470155
0.31630671 -0.091294229 0.57211995
-0.38318267 -0.10139977 0.65538192
-0.37840262 -0.10101731 0.65260577
-0.37554589 -0.10113706 0.65324938
-0.37279621 -0.10129651 0.65417284
-0.36912492 -0.10122734 0.65364331
-0.36539516 -0.10110303 0.65307903
-0.36041585 -0.10065998 0.65032852
-0.35682583 -0.10057641 0.65021747
-0.35347289 -0.10056874 0.65061814
-0.34964064 -0.10043328 0.65021288
-0.34572127 -0.10026392 0.64973205
-0.34212396 -0.10017356 0.64992917
-0.33828029 -0.10002645 0.64977705
-0.33421862 -0.09979327 0.64920729
-0.33021793 -0.099569961 0.6488418
-0.32622537 -0.099372506 0.64851516
-0.32239518 -0.099210523 0.64853829
-0.31897503 -0.099155948 0.64940572
-0.31531122 -0.099029794 0.64982325
-0.31115904 -0.098759167 0.64926445
-0.30781657 -0.098726496 0.65038908
-0.30227932 -0.098003246 0.6468302
-0.29857802 -0.097850166 0.64712393
-0.29389396 -0.097353064 0.64529985
-0.29083934 -0.097412609 0.64697003
-0.28696156 -0.097201578 0.64684063
-0.28254473 -0.096778847 0.64543825
-0.27842465 -0.096456811 0.64465338
-0.27487275 -0.09634047 0.64509231
-0.27059692 -0.095950253 0.64381331
-0.26674274 -0.095694378 0.64340526
-0.26346111 -0.095669515 0.64440209
-0.25976792 -0.095470808 0.64432627
-0.2551116 -0.094901003 0.64173579
-0.25156903 -0.094744571 0.64190984
-0.24825321 -0.094683804 0.64254266
-0.24442522 -0.094401918 0.64181459
-0.24046794 -0.094083324 0.64068568
-0.2370441 -0.093946166 0.64088845
-0.23328748 -0.093692787 0.64012915
-0.23009361 -0.09366104 0.64088064
-0.22677948 -0.093557268 0.64126021
-0.22302505 -0.093278691 0.6402728
-0.21992823 -0.093270615 0.64111805
-0.21674119 -0.093231879 0.64173084
-0.21314712 -0.093004726 0.64104378
-0.20938393 -0.092695467 0.63974386
-0.20622586 -0.092659704 0.64018488
-0.20283808 -0.092505582 0.63992846
-0.19920881 -0.092234321 0.63883704
-0.19567864 -0.092011519 0.63793421
-0.1923815 -0.091880947 0.63778967
-0.1892617 -0.091852121 0.63818663
-0.18629663 -0.091866687 0.63900661
-0.18254751 -0.091508552 0.63706863
-0.17910221 -0.091302216 0.63618344
-0.17612487 -0.091319486 0.63683438
-0.17304239 -0.091291197 0.63716698
-0.17006025 -0.09130343 0.63774121
-0.16713496 -0.091356806 0.63860279
-0.1631707 -0.090821043 0.63532287
-0.15993118 -0.090686165 0.63484353
-0.15712388 -0.09079434 0.63604486
-0.15357718 -0.09045776 0.6341089
-0.14992213 -0.09005329 0.63167322
-0.14665818 -0.089870542 0.63078982
-0.14338033 -0.089689821 0.62975901
-0.13789533 -0.088069417 0.61873204
nan nan nan
nan nan nan
-0.096129812 -0.065537773 0.46107191
-0.091246136 -0.063638471 0.4479343
-0.087836765 -0.062700912 0.44154203
-0.083844744 -0.061304521 0.43180177
-0.081618175 -0.061146066 0.43087369
-0.07919728 -0.060828995 0.42881283
-0.076643758 -0.060413469 0.42594829
-0.074341312 -0.06015262 0.42426708
-0.07205677 -0.059901979 0.42264324
-0.069853753 -0.05970541 0.42139962
-0.06788478 -0.059714925 0.42149079
-0.065732479 -0.059543431 0.4203968
-0.063694447 -0.059466477 0.41996971
-0.061745495 -0.059481405 0.42016512
-0.059530172 -0.059230562 0.41848275
-0.05763283 -0.059288047 0.41897842
-0.055508528 -0.059106063 0.4177686
-0.05312337 -0.058621112 0.41440347
-0.051163156 -0.058598991 0.41429678
-0.049215056 -0.058572214 0.41415706
nan nan nan
nan nan nan
-0.04280775 -0.057756286 0.40847099
-0.041670676 -0.058826156 0.41613963
-0.03984398 -0.059009928 0.41743776
-0.038058829 -0.059254508 0.41916597
-0.0362278 -0.059455756 0.42066669
-0.034315027 -0.059549734 0.42131662
-0.0324382 -0.059705094 0.42246705
-0.030516416 -0.059790734 0.42312437
-0.028584819 -0.059865829 0.42370713
-0.026753608 -0.060189039 0.42592689
-0.024906999 -0.060541335 0.42844534
-0.023156876 -0.061172634 0.43292534
-0.021249989 -0.061506763 0.43530238
-0.019391406 -0.062006455 0.43893367
-0.017452953 -0.062400099 0.44170552
-0.015512274 -0.062886477 0.4451336
-0.013570381 -0.063499399 0.44952753
-0.011656703 -0.064506054 0.45662463
-0.009780854 -0.066197738 0.46864301
nan nan nan
nan nan nan
nan nan nan
nan nan nan
0.0015566581 -0.091463633 0.64750987
0.0046763336 -0.093587928 0.66252828
0.0073621972 -0.088791974 0.62855726
0.010273883 -0.088653348 0.62767428
0.013115348 -0.088115133 0.62380594
0.016087027 -0.088468991 0.62637055
0.018973697 -0.088331811 0.62532216
0.021889634 -0.088329978 0.62534928
0.02478639 -0.088275008 0.62486374
0.027725618 -0.088347673 0.62539887
0.030522803 -0.088048764 0.62328446
0.033573236 -0.088414676 0.62585688
0.036475606 -0.08840698 0.62578464
0.03936325 -0.088364504 0.62544686
0.042275511 -0.088316992 0.62519085
0.04522546 -0.088401377 0.62573171
0.048076864 -0.088292234 0.62488335
0.051004332 -0.088305719 0.62502044
0.053798504 -0.088146187 0.62379634
0.056637499 -0.088021383 0.62293541
0.059484676 -0.087964863 0.62240201
0.062463965 -0.08805161 0.62301868
0.065286323 -0.087941796 0.62222534
0.068044186 -0.087754868 0.62086713
0.070936255 -0.087789156 0.62093782
0.073937483 -0.087906882 0.62171543
0.076783717 -0.087857552 0.62129211
0.079677701 -0.087840378 0.62109625
0.082342148 -0.087598026 0.61928922
0.085167177 -0.087534532 0.61872751
0.087989464 -0.087469839 0.61827415
0.090656355 -0.087256745 0.6166361
0.093539812 -0.087274358 0.61662859
0.096533202 -0.087370738 0.6171388
0.099400252 -0.087345906 0.61692858
0.10235648 -0.08741463 0.61724293
0.10504198 -0.087268606 0.61600238
0.1076153 -0.087002799 0.61405265
0.11083745 -0.08729317 0.61589217
0.11366645 -0.087265134 0.61544579
0.11646596 -0.08719521 0.61483997
0.11980194 -0.08753714 0.6170013
0.12240693 -0.087339625 0.61532098
0.12483127 -0.087017626 0.61290085
0.12773624 -0.087041162 0.61277902
0.13046487 -0.086957306 0.61188179
0.13308613 -0.086786099 0.61048669
0.13580605 -0.086701915 0.60954946
0.13854676 -0.086613365 0.60871708
0.14143029 -0.086644582 0.60857183
0.14428124 -0.086641923 0.6081689
0.14737734 -0.086782232 0.60876858
0.14997266 -0.086618319 0.60734975
0.15255308 -0.086469211 0.60588121
0.15532914 -0.086422287 0.60512924
0.1583357 -0.086512133 0.60531503
0.16100429 -0.086416036 0.60418022
0.16384394 -0.086412162 0.60367107
0.16672195 -0.086426996 0.60329205
0.16958489 -0.086432338 0.60282695
0.17255735 -0.086491145 0.60273397
0.17584078 -0.086719453 0.6036464
0.17843299 -0.08658509 0.60216779
0.18119557 -0.086535104 0.60127676
0.1840902 -0.086566918 0.60078061
0.18718499 -0.08666151 0.60085315
0.18994541 -0.086627819 0.59988171
0.19285868 -0.086643837 0.59936899
0.19611649 -0.086821601 0.59981942
0.19915947 -0.08690843 0.59963894
0.20205261 -0.086919419 0.59889507
0.20458128 -0.086763777 0.59713775
0.20734303 -0.086720161 0.59601885
0.21060219 -0.086901896 0.59627438
0.21371847 -0.087001137 0.59607482
0.21664134 -0.087019525 0.59531975
0.22021146 -0.087293506 0.59629017
0.22301157 -0.087270506 0.59507596
0.2260655 -0.087334134 0.59456575
0.22912081 -0.087388717 0.59397262
0.23172081 -0.087289535 0.59220147
0.23547937 -0.087623894 0.59332937
0.23849656 -0.087657958 0.59255213
0.24119397 -0.087594286 0.59096164
0.24369514 -0.087461673 0.588889
0.24783584 -0.087894008 0.59072906
0.2507914 -0.087927014 0.58974671
0.25368613 -0.087911613 0.58853209
0.25674385 -0.08797171 0.58768976
0.26016578 -0.088140778 0.58768439
0.26334313 -0.088243529 0.58710098
0.26650569 -0.088319324 0.58644748
0.26930004 -0.088278838 0.58500105
0.27356943 -0.088717133 0.58670163
0.27660897 -0.088757522 0.58578372
0.27945387 -0.088721216 0.58445048
0.28211674 -0.08865387 0.58280194
0.28502133 -0.08862897 0.58167499
0.28871083 -0.088877216 0.58220577
0.29172763 -0.08889468 0.58135158
0.29440644 -0.088826761 0.57993817
0.29704851 -0.088733979 0.57849348
0.30001506 -0.088743344 0.57771391
0.3037132 -0.088962831 0.57844961
0.30636278 -0.088883646 0.57724053
0.3096526 -0.088999644 0.57731736
0.31242439 -0.088940978 0.57652098
0.31499341 -0.088834971 0.57545745
0.31737724 -0.088687845 0.57412755
-0.38130081 -0.097556658 0.65207458
-0.37954774 -0.097971842 0.65448821
-0.37677529 -0.098125353 0.65533215
-0.37350103 -0.098157771 0.6554144
-0.36947784 -0.097983204 0.65426975
-0.36563247 -0.097838491 0.65352428
-0.36204547 -0.097782396 0.65339237
-0.35695177 -0.097300649 0.65056676
-0.35262251 -0.097029746 0.64916921
-0.34947187 -0.097074248 0.65007716
-0.34602341 -0.097029895 0.65051764
-0.34232664 -0.096925035 0.65059483
-0.33793902 -0.096631274 0.6493991
-0.33454579 -0.096607052 0.65016186
-0.32956719 -0.09610232 0.64783478
-0.32593825 -0.09600348 0.64825797
-0.32260874 -0.095996968 0.64930195
-0.3189683 -0.095886588 0.64976925
-0.31465054 -0.095567271 0.64883631
-0.31163704 -0.095632061 0.6506356
-0.30685115 -0.095177099 0.64874196
-0.30226514 -0.094758846 0.64721459
-0.29916418 -0.094801672 0.64883059
-0.29478723 -0.094443195 0.64767313
-0.29048219 -0.094084799 0.64665568
-0.28702372 -0.094017506 0.64746052
-0.28317747 -0.093797922 0.64734048
-0.27870545 -0.093363732 0.64572966
-0.27449575 -0.093037345 0.64468211
-0.26997215 -0.092566177 0.64274788
-0.26638111 -0.092414878 0.64300442
-0.26287127 -0.092309862 0.64340872
-0.25965405 -0.092276759 0.64444
-0.25524917 -0.091823295 0.64252889
-0.25185269 -0.0917181 0.64302593
-0.24821801 -0.091551475 0.64291835
-0.24474941 -0.091412947 0.64313185
-0.24105375 -0.091206104 0.64269024
-0.23670666 -0.090722494 0.64041752
-0.23347211 -0.090679191 0.64107686
-0.23009101 -0.090568177 0.64125544
-0.22649834 -0.090356596 0.64084548
-0.2231693 -0.090258278 0.64104486
-0.21994659 -0.090200238 0.64152831
-0.21682775 -0.090191826 0.64236367
-0.2130664 -0.089902662 0.64115453
-0.20938975 -0.089631826 0.64007038
-0.20581904 -0.089428097 0.63929206
-0.2026134 -0.089357272 0.63958824
-0.19907244 -0.0891243 0.63870019
-0.19577821 -0.089025609 0.63860297
-0.19239965 -0.088853508 0.63812411
-0.18921261 -0.08879526 0.63829279
-0.18626577 -0.088818043 0.63917011
-0.18326305 -0.088844262 0.63992459
-0.17951351 -0.088491708 0.63790751
-0.17622542 -0.088367291 0.63753164
-0.17341305 -0.088469394 0.63878942
-0.17048563 -0.088513941 0.63959122
-0.16739748 -0.088484436 0.63985753
-0.16356012 -0.088038117 0.63708651
-0.16059202 -0.08806137 0.63771093
-0.15730888 -0.087907903 0.6370343
-0.1541077 -0.0877821 0.63653618
-0.1501504 -0.087222219 0.6328668
-0.14705533 -0.087149076 0.63272589
-0.14312702 -0.08656732 0.62886924
-0.13927078 -0.086023673 0.62512112
nan nan nan
nan nan nan
nan nan nan
-0.091194741 -0.061514229 0.44782525
-0.087374985 -0.060323775 0.43935797
-0.084530219 -0.059764009 0.43546447
-0.081728183 -0.05920627 0.43158218
-0.079381123 -0.058970369 0.4299317
-0.076676488 -0.058434155 0.42618793
-0.074438453 -0.058243472 0.42493555
-0.072063416 -0.057930745 0.42279142
-0.070069708 -0.057916373 0.42272753
-0.068014421 -0.057855733 0.42239562
-0.065964267 -0.057782862 0.42198718
-0.063819982 -0.057618909 0.42088678
-0.061517868 -0.057308067 0.41871253
-0.059675325 -0.05741727 0.41959375
-0.057639666 -0.057339996 0.41909924
-0.055573139 -0.057223696 0.41831914
-0.053514697 -0.057105679 0.41751316
-0.051338151 -0.05686032 0.4157629
-0.049323477 -0.056765132 0.41511029
