# .PCD v0.7 - Point Cloud Data file format
VERSION 0.7
FIELDS x y z
SIZE 4 4 4
TYPE F F F
COUNT 1 1 1
WIDTH 1360
HEIGHT 1
VIEWPOINT 0 0 0 1 0 0 0
POINTS 1360
DATA ascii
0.050405104 -0.036220491 0.42425606
0.048478246 -0.034277678 0.42472124
0.048431724 -0.032266036 0.42424151
0.046486452 -0.030307023 0.42462504
0.046522431 -0.028360637 0.42496502
0.092137344 -0.026414033 0.42401752
0.094317518 -0.018520482 0.42490745
0.044461839 -0.016453356 0.42421779
0.096244276 -0.016523706 0.42449838
0.044488117 -0.014490564 0.42442238
0.094121188 -0.014524056 0.42406261
0.044511639 -0.012525823 0.42457455
0.096141636 -0.010567348 0.42411444
0.042564999 -0.00066467084 0.42492017
0.1002994 -0.00065250538 0.42466116
0.040560514 0.0013147021 0.4245837
0.042517927 0.0013148532 0.42445022
0.036558632 0.0072363745 0.42406192
0.036627255 0.013176957 0.42486572
0.03657335 0.0151338 0.42417544
0.1106014 0.021259179 0.42482147
0.11061407 0.023249747 0.42481437
0.030653579 0.025022266 0.42429909
0.030629529 0.026976345 0.42402917
0.10033656 0.029132551 0.42440951
0.098325118 0.035086583 0.42431962
0.061595801 -0.12587385 0.42595667
0.065556936 -0.12370523 0.4254503
0.053264156 -0.11923614 0.42577347
0.05734355 -0.11935571 0.42587763
0.053242017 -0.11717046 0.42590895
0.055186883 -0.11703473 0.42527002
0.057287462 -0.11722524 0.42580286
0.059283704 -0.11719471 0.42553249
0.061330579 -0.11726123 0.42558715
0.065435238 -0.11742096 0.42579237
0.067440398 -0.11739726 0.42549181
0.05718606 -0.11500947 0.42537639
0.061198071 -0.11500245 0.42500848
0.063329928 -0.11525042 0.42575338
0.06738729 -0.11529747 0.42552948
0.069463246 -0.11541775 0.42576051
0.053161021 -0.1149812 0.42557275
0.055137765 -0.11492228 0.42521104
0.059172731 -0.11496919 0.42507011
0.065330341 -0.11322022 0.42580265
0.051140081 -0.11293323 0.42586505
0.053062703 -0.11276332 0.42509645
0.057095595 -0.11282437 0.42502993
0.063191347 -0.11297148 0.42506355
0.067344412 -0.11120322 0.42594829
0.051078498 -0.11079169 0.42564061
0.065179907 -0.11094683 0.42516059
0.050981753 -0.10858223 0.42510855
0.053003039 -0.10863666 0.42518446
0.061114069 -0.10883365 0.42539018
0.069206916 -0.10896292 0.42513981
0.052957322 -0.10653435 0.42508659
0.059084024 -0.1067891 0.42566985
0.052951097 -0.10452894 0.42530516
0.050918236 -0.1024548 0.42533123
0.048934951 -0.10048998 0.42583621
0.050867446 -0.10035247 0.42515251
0.073161304 -0.10085054 0.4255833
0.075221978 -0.10093728 0.42572498
0.07309027 -0.098755658 0.42547241
0.07513921 -0.098828219 0.42556337
0.077207059 -0.098919846 0.42572242
0.07299082 -0.096628517 0.42518163
0.075075924 -0.096732706 0.42542124
0.077164508 -0.096851408 0.42571053
0.048857845 -0.094354033 0.42579186
0.050803427 -0.094259359 0.42525783
0.07503362 -0.094686247 0.42546049
0.077160977 -0.094838336 0.42597455
0.050796047 -0.092256747 0.42540017
0.075002693 -0.092640862 0.42547372
0.050811399 -0.090297207 0.42571929
0.077003703 -0.08864928 0.42576459
0.076896936 -0.086530916 0.42541564
0.048715919 -0.082142413 0.42542931
0.048759408 -0.080227397 0.42594931
0.050628837 -0.078061089 0.42501402
0.048696995 -0.076159604 0.42564389
0.078824453 -0.07647609 0.42576477
0.048683699 -0.07414677 0.42564067
0.048688717 -0.072177611 0.42578423
0.052676003 -0.072177276 0.42570919
0.080651574 -0.072338767 0.42503712
0.048679225 -0.07015691 0.42567161
0.050629672 -0.070115872 0.42535815
0.082775868 -0.070454679 0.42565084
0.048612289 -0.068078361 0.42517236
0.082732104 -0.068425447 0.42560953
0.046666283 -0.066144727 0.42566949
0.082700774 -0.066398859 0.42553627
0.084594287 -0.064338192 0.42501715
0.050592534 -0.062124461 0.42536035
0.084640287 -0.062386937 0.42540804
0.082580201 -0.060339887 0.42530271
0.084687039 -0.060425777 0.42570883
0.084624991 -0.0583851 0.42554322
0.084565945 -0.056363948 0.42536563
0.048585158 -0.054169357 0.42537367
0.082475595 -0.054308977 0.42505631
0.084581152 -0.054372642 0.42549428
0.084510647 -0.052351024 0.42524546
0.046639554 -0.050246451 0.42585084
0.086607225 -0.050424118 0.42569539
0.048533306 -0.048178565 0.42504084
0.090506651 -0.038449667 0.42549187
0.090468615 -0.034448382 0.42544484
0.09037549 -0.032434639 0.42504138
0.048537932 -0.03035094 0.42520121
0.04460071 -0.018491065 0.42546439
0.096444368 -0.014573224 0.42544752
0.04261608 -0.010559391 0.42542988
0.042632699 -0.008591827 0.42563492
0.042607732 -0.0046182298 0.42532068
0.040675431 -0.0026499077 0.42578667
0.042616669 -0.0026488621 0.42542291
0.03869991 -0.00066566456 0.42593393
0.03865565 0.001316769 0.42543375
0.038645729 0.0032975951 0.42532459
0.036670923 0.005277798 0.42539051
0.036711942 0.0092497393 0.4258011
0.10447566 0.013269932 0.42502537
0.034711044 0.015177933 0.4255819
0.10069622 0.033226136 0.42581955
0.038661066 0.040939867 0.4254289
0.065972306 -0.13058138 0.42683023
0.067990661 -0.13054261 0.42647684
0.06588091 -0.12836675 0.42665207
0.067869395 -0.12827864 0.42614836
0.069961637 -0.12840973 0.42635879
0.059623588 -0.12798594 0.4260217
0.063742027 -0.12611265 0.42656961
0.065794267 -0.12615484 0.4265033
0.067822501 -0.12618746 0.42635795
0.069867127 -0.12620848 0.42619225
0.067803822 -0.12411269 0.42664421
0.053475857 -0.1237346 0.42667341
0.055545013 -0.123845 0.42690232
0.06158413 -0.12382473 0.42626122
0.06363488 -0.12387589 0.4262442
0.051392611 -0.12157012 0.42673591
0.053403609 -0.12157263 0.42654717
0.059572093 -0.12180976 0.42688778
0.061596964 -0.12181294 0.42672133
0.065617248 -0.12179808 0.42622495
0.069748193 -0.12196001 0.42636681
0.051337596 -0.11941571 0.42659745
0.059405617 -0.11945161 0.42605817
0.061514121 -0.11962975 0.4265179
0.063504077 -0.1195716 0.42612135
0.067596845 -0.11969849 0.4261184
0.069726579 -0.11990289 0.42662868
0.063490801 -0.11755686 0.42647269
0.0696266 -0.11770244 0.42638269
0.071749873 -0.11786306 0.42674887
0.065425292 -0.11539311 0.42608154
0.071586229 -0.11558364 0.42614555
0.049177356 -0.11305373 0.4264476
0.071532503 -0.11347569 0.42618152
0.073577024 -0.11353131 0.42616546
0.069423378 -0.11132781 0.42621678
0.071442477 -0.11132938 0.4260003
0.049130935 -0.1109369 0.42632449
0.071390353 -0.10923404 0.42603043
0.073405534 -0.10721913 0.42613009
0.051143516 -0.10690941 0.42671856
0.073333986 -0.10511974 0.42604584
0.075522266 -0.1053799 0.42687029
0.04907088 -0.10477807 0.42655784
0.051059972 -0.10473633 0.42626849
0.075416535 -0.10322376 0.42659473
0.077391885 -0.10116089 0.42644313
0.079468153 -0.099216267 0.42682025
0.081513062 -0.099279426 0.42684168
0.048943181 -0.098517627 0.42613071
0.079387248 -0.097113304 0.42668778
0.048980143 -0.09659002 0.42666191
0.046973675 -0.094551116 0.4267748
0.048889361 -0.092395671 0.4261449
0.077215888 -0.092894442 0.42648655
0.048941962 -0.09050177 0.42677179
0.075061209 -0.0907102 0.42607081
0.077127479 -0.090797007 0.42626774
0.079268917 -0.090950795 0.42681494
0.079134651 -0.08879181 0.42629254
0.079047464 -0.086694613 0.42606869
0.079098351 -0.084750161 0.426516
0.079157963 -0.082800828 0.42699698
0.046864089 -0.078391083 0.42696023
0.048758797 -0.078240246 0.42607075
0.078996643 -0.078633405 0.4264904
0.081098489 -0.078740187 0.42685187
0.083125904 -0.078769319 0.42686498
0.081023663 -0.07666292 0.42666632
0.046845511 -0.074372731 0.42699793
0.080974922 -0.074615777 0.42654681
0.046734672 -0.072217867 0.42607749
0.050736975 -0.072253697 0.426164
0.082971461 -0.072618514 0.42654136
0.046752267 -0.068265997 0.42639074
0.08498162 -0.068635896 0.42669591
0.044805396 -0.066333197 0.42692384
0.084925249 -0.066594616 0.4265869
0.046788562 -0.064332612 0.42683464
0.048740268 -0.064276226 0.42642435
0.048704337 -0.062253166 0.42628533
0.048704572 -0.060275715 0.42633364
0.086891137 -0.060570247 0.42662114
0.048745915 -0.058336362 0.42672849
0.086789235 -0.058502372 0.42620477
0.048763946 -0.056355618 0.42691928
0.086776167 -0.056507591 0.42626351
0.046760868 -0.052358441 0.42685464
0.086741038 -0.052491304 0.42632297
0.046665043 -0.048284173 0.42606699
0.046742566 -0.04637358 0.42675817
0.04865947 -0.046302859 0.42612585
0.046740059 -0.044395149 0.42682576
0.048661016 -0.044330619 0.42623469
0.044733863 -0.042391915 0.42668211
0.04675277 -0.042406738 0.42689887
0.08870019 -0.042507183 0.42638057
0.046711355 -0.040384077 0.42658478
0.048739277 -0.040427256 0.42695606
0.04870959 -0.038407154 0.42664969
0.050658271 -0.038385052 0.42632663
0.046714369 -0.036409341 0.42660707
0.09065298 -0.036512077 0.42621446
0.046698287 -0.03441618 0.42649791
0.092654772 -0.030537903 0.42631605
0.0926755 -0.028560711 0.42642206
0.046659146 -0.026456352 0.42622519
0.094815485 -0.026599154 0.42699063
0.046734218 -0.02450921 0.4268961
0.044731662 -0.022516642 0.42678022
0.046693262 -0.022500882 0.4265202
0.04270516 -0.02051471 0.42635772
0.04465498 -0.020495221 0.42601529
0.042685524 -0.018510578 0.42610958
0.042729594 -0.014570476 0.4265759
0.042676471 -0.012564979 0.42611095
0.096755452 -0.012627248 0.42682767
0.042708375 -0.0066188173 0.42642972
0.040699221 -0.00066612969 0.42604873
0.036800265 0.011263786 0.42693803
0.034795761 0.013241212 0.42668596
0.10895848 0.019322883 0.42648849
0.10905325 0.025351515 0.42670786
0.0367731 0.031113684 0.42655224
0.048706919 0.043044858 0.42653778
0.056077689 -0.13932234 0.42788991
0.058112819 -0.13931024 0.4276323
0.060177039 -0.13936538 0.42756712
0.062270023 -0.13951147 0.42776674
0.056011368 -0.13713318 0.42791411
0.058069877 -0.13718316 0.42785054
0.06008197 -0.13710907 0.42742923
0.062164102 -0.13720644 0.42749923
0.058016855 -0.13500448 0.42789155
0.062098905 -0.13504267 0.42757756
0.064198986 -0.13516085 0.42774889
0.053888526 -0.1348592 0.42785391
0.06002694 -0.13496397 0.42757457
0.068242744 -0.13308442 0.42762318
0.055896387 -0.13278148 0.42797393
0.066165276 -0.13297978 0.4275465
0.055842809 -0.13060723 0.42795849
0.064075515 -0.13084096 0.42787826
0.053692151 -0.12830119 0.42767063
0.055720761 -0.12831287 0.42750826
0.057761472 -0.12833594 0.42741564
0.057723105 -0.12621443 0.42751861
0.059754152 -0.12621778 0.42734852
0.057727359 -0.12418924 0.42792293
0.059662972 -0.12402393 0.42717373
0.070013463 -0.1244531 0.42759258
0.051560029 -0.12396842 0.42767873
0.067868598 -0.12220465 0.42744181
0.055608623 -0.12198595 0.42784706
0.05761075 -0.12193888 0.42751801
0.071866855 -0.12008897 0.4270592
0.055511247 -0.11974647 0.42743388
0.073969342 -0.11818895 0.42768502
0.051358145 -0.1174542 0.42708638
0.051365215 -0.1154493 0.42744946
0.073858604 -0.115995 0.42743438
0.047283985 -0.11330236 0.42755148
0.067589842 -0.11363225 0.42715466
0.075898267 -0.11399816 0.42767814
0.073670417 -0.11166655 0.42706719
0.075880714 -0.1119583 0.42794535
0.049220316 -0.10912716 0.42736617
0.073700964 -0.10969096 0.42759126
0.049245056 -0.10715811 0.42783335
0.077629991 -0.10347031 0.42742831
0.047167286 -0.10297672 0.42771935
0.049125951 -0.10289457 0.42727432
0.079681359 -0.10151055 0.42772147
0.047141794 -0.10090637 0.42771566
0.081572153 -0.097328708 0.42738637
0.046999633 -0.0926039 0.4271962
0.046985243 -0.090578966 0.4272373
0.081353754 -0.089021742 0.42722577
0.045006875 -0.08862026 0.42763901
0.046992566 -0.088598475 0.42746219
0.048980482 -0.088580295 0.42728937
0.046970434 -0.086565338 0.42740551
0.081321999 -0.086994372 0.42730939
0.081397086 -0.085053861 0.42788321
0.046983317 -0.084586024 0.42766726
0.046898082 -0.082435429 0.42703554
0.081351243 -0.082988277 0.42780766
0.0468827 -0.080414169 0.42701271
0.079157226 -0.080802679 0.42721164
0.081193365 -0.080842398 0.42721343
0.08538425 -0.078996338 0.42793629
0.04489094 -0.076425128 0.42725629
0.046885502 -0.076437093 0.42725897
0.08314319 -0.07677868 0.42709658
0.046875175 -0.070439093 0.42743507
0.085204378 -0.07081712 0.42770737
0.044895254 -0.068472572 0.42772767
0.046908308 -0.062495723 0.42797688
0.087194614 -0.062780119 0.42797408
0.046862233 -0.060437035 0.42759302
0.089211427 -0.06078985 0.42796698
0.046852142 -0.058445927 0.42765826
0.044863798 -0.056460343 0.42773506
0.046803471 -0.056394346 0.42722392
0.046787392 -0.054387037 0.42708695
0.087014735 -0.054659314 0.42755851
0.089028262 -0.054674018 0.4274807
0.089099534 -0.052704684 0.42787123
0.09113232 -0.052726842 0.42786604
0.044861417 -0.05047901 0.4278093
0.089027457 -0.050660029 0.42763776
0.044843346 -0.048461445 0.42760953
0.044836231 -0.044466879 0.42758644
0.089031085 -0.044663031 0.42791235
0.044853974 -0.040503062 0.42777404
0.08883027 -0.040577948 0.42707789
0.044858184 -0.038517665 0.42787299
0.046771765 -0.038462929 0.42720056
0.046749957 -0.032472551 0.42700747
0.092846207 -0.032598503 0.42712465
0.044819679 -0.028529979 0.42751583
0.094998993 -0.028655168 0.42781714
0.044825535 -0.026540399 0.42757779
0.042875621 -0.024573607 0.42798048
0.044829227 -0.024557477 0.42771816
0.042813145 -0.022555346 0.42746186
0.040839754 -0.018576642 0.42752516
0.042785786 -0.016574083 0.42720225
0.040855229 -0.0126213 0.42777285
0.040815726 -0.0106134 0.42727453
0.040802762 -0.0086190104 0.42717808
0.098971955 -0.0086551886 0.42762798
0.040834583 -0.0046537006 0.42757675
0.10095444 -0.0026672774 0.42742115
0.036888819 0.0013240123 0.42795748
0.036829296 0.0033112338 0.42725387
0.034890231 0.011280694 0.42773613
0.034857746 0.019230053 0.42738399
0.034859624 0.021217192 0.42747599
0.030912889 0.029207168 0.42782071
0.036884788 0.035188485 0.4278504
0.046836812 0.043142643 0.42760029
0.056480583 -0.14856334 0.42878908
0.060667761 -0.14874154 0.42883906
0.062735915 -0.14876015 0.42863947
0.054275006 -0.14607793 0.42830241
0.056363799 -0.14617838 0.42838717
0.058462128 -0.14632952 0.42859221
0.060596481 -0.14652291 0.42892036
0.062695585 -0.14662023 0.42896682
0.056347188 -0.14408185 0.42882299
0.058393899 -0.14410603 0.42867193
0.060523525 -0.14429212 0.42898822
0.062606156 -0.14435668 0.4289428
0.06248739 -0.14203323 0.42870158
0.064573005 -0.14210795 0.42866284
0.054217901 -0.14183591 0.42897972
0.05829218 -0.14178692 0.42838782
0.06031302 -0.14174393 0.42806417
0.054078672 -0.13944127 0.42841941
0.06448859 -0.13987587 0.42867744
0.052011251 -0.13730417 0.42881617
0.054034036 -0.13726333 0.42849669
0.064340249 -0.13752729 0.42823705
0.056023415 -0.13510555 0.42843062
0.066332325 -0.13538 0.42818153
0.068514921 -0.1356415 0.42879099
0.064205214 -0.13315357 0.42832056
0.053936068 -0.13295676 0.42874277
0.057988573 -0.13290599 0.42820206
0.06003388 -0.13293019 0.42804846
0.06210123 -0.13298529 0.4280248
0.062162131 -0.13109604 0.42897123
0.053832512 -0.13065155 0.42830637
0.0579312 -0.1307275 0.42818114
0.060047317 -0.13094208 0.42865309
0.05178285 -0.12859751 0.42881426
0.062051285 -0.12881847 0.42860892
0.064018682 -0.12869878 0.428013
0.072394997 -0.12709928 0.42897564
0.051658794 -0.12624659 0.42814952
0.053783853 -0.12647589 0.42877302
0.055763688 -0.12637115 0.42821732
0.049639877 -0.12422303 0.42868185
0.072279215 -0.12485972 0.42870572
0.049615312 -0.12215529 0.42892665
0.07210169 -0.12250955 0.42805389
0.074163042 -0.12256737 0.42802158
0.074203692 -0.12060511 0.42864823
0.049492512 -0.11981966 0.42817509
0.049463037 -0.1177185 0.42822966
0.076136433 -0.11639136 0.42863876
0.045354057 -0.11552089 0.42811564
0.047389369 -0.11558051 0.4282333
0.049409166 -0.1155785 0.42805845
0.045362532 -0.11351511 0.42846921
0.047311179 -0.11134757 0.42806777
0.075869158 -0.109896 0.428155
0.047337119 -0.10737345 0.42880186
0.075800158 -0.10777429 0.42810342
0.047251362 -0.10516847 0.42825356
0.077920325 -0.10589664 0.42877394
0.045243882 -0.10317498 0.42864689
0.079962753 -0.10388861 0.42891353
0.045249101 -0.10116494 0.42889985
0.04715509 -0.098935343 0.4280366
0.047186695 -0.096989632 0.42852372
0.079760946 -0.095560454 0.42898601
0.045162272 -0.094944492 0.42864424
0.045084111 -0.092775181 0.42806393
0.081632368 -0.091356985 0.42848152
0.045065459 -0.090735003 0.42804798
0.045054086 -0.086716719 0.42823499
0.0490692 -0.086746618 0.42821836
0.043069236 -0.084758215 0.4286823
0.045023318 -0.084651336 0.42807633
0.045002844 -0.082609974 0.42800179
0.083417028 -0.081047609 0.42813337
0.045037683 -0.080671892 0.42845321
0.045065671 -0.078721128 0.42882615
0.043023311 -0.07465025 0.42869845
0.044998486 -0.074601702 0.42837277
0.083295628 -0.074910708 0.42800909
0.04501396 -0.072657384 0.42872661
0.085351929 -0.072948396 0.4282594
0.044931587 -0.07052502 0.42800796
0.087441668 -0.068998739 0.4288117
0.087437317 -0.066976719 0.42890236
0.044966944 -0.064578488 0.42850226
0.089422941 -0.062947266 0.4288924
0.0449006 -0.058502022 0.42807361
0.089226082 -0.05880167 0.42817745
0.089214139 -0.05678365 0.42824671
0.044892717 -0.054490834 0.4280099
0.089099787 -0.048698749 0.42807102
0.091322713 -0.048819471 0.42896491
0.044900764 -0.046539769 0.42825574
0.091195002 -0.046747018 0.42845383
0.042984083 -0.042613875 0.42899466
0.091210261 -0.042749349 0.4286761
0.044893757 -0.036558606 0.42825791
0.0448738 -0.034554802 0.42810002
0.093145087 -0.034712955 0.42846203
0.044898435 -0.032573115 0.42836747
0.04491837 -0.030591413 0.42845112
0.095070735 -0.030679664 0.42806649
0.04295674 -0.028615858 0.42880291
0.042894505 -0.026578803 0.42818186
0.095206015 -0.024717849 0.4288097
0.095090121 -0.020672349 0.42836806
0.04091619 -0.016626719 0.42840418
0.040955443 -0.014638217 0.42875642
0.099212743 -0.01067887 0.42868608
0.040905446 -0.0066446732 0.42829254
0.038906671 -0.0026637618 0.42819646
0.036941212 -0.00066951022 0.42856532
0.034943163 0.0033197973 0.42852941
0.03491123 0.0073021241 0.42808536
0.032986607 0.0093103126 0.42891783
0.034910098 0.0092945024 0.42803213
0.1052692 0.011362989 0.42825273
0.10544509 0.01540467 0.42895663
0.10120922 0.03139491 0.42802307
0.036917694 0.039209411 0.42819521
0.065228738 -0.15598848 0.42933798
0.065176345 -0.15378973 0.4296321
0.067299455 -0.15393396 0.42976454
0.060805384 -0.15114482 0.42919636
0.062887616 -0.15118536 0.42905697
0.065116055 -0.15160951 0.42996553
0.050367426 -0.14868654 0.42977783
0.05452808 -0.14880952 0.42972484
0.058617909 -0.14876705 0.42915186
0.052360203 -0.14645518 0.4296186
0.06479115 -0.14672016 0.42903346
0.052257109 -0.14411053 0.42934027
0.054313395 -0.14412603 0.4291774
0.064714752 -0.14450543 0.42911911
0.068951003 -0.14474115 0.4293144
0.066770285 -0.14244513 0.42941502
0.06895002 -0.14268222 0.42990637
0.070988923 -0.14266299 0.429555
0.048105095 -0.14192599 0.42979255
0.050125405 -0.14183684 0.4293845
0.052182078 -0.14186524 0.42927641
0.056318179 -0.14197019 0.42916372
0.066707291 -0.14023027 0.42949963
0.068859212 -0.14045492 0.42990935
0.050094072 -0.13971128 0.42964926
0.052083671 -0.13956429 0.42900425
0.06869527 -0.13807289 0.42945334
0.070858657 -0.13828598 0.42982471
0.066598669 -0.13795538 0.42935064
0.070744 -0.13601616 0.42968521
0.049971741 -0.13527215 0.42951635
0.052019589 -0.13529797 0.42940712
0.049928941 -0.13313003 0.42965129
0.051910721 -0.1329919 0.42901549
0.049910862 -0.13102119 0.42986542
0.051892988 -0.13089055 0.42924765
0.049837057 -0.12882149 0.42970341
0.049725089 -0.12648304 0.42909178
0.047570653 -0.12006186 0.42916167
0.076479882 -0.12099638 0.42979151
0.045540098 -0.11803249 0.42959672
0.076345474 -0.1187397 0.42943296
0.047537934 -0.11794326 0.42916647
0.078274906 -0.11246427 0.4296793
0.078190885 -0.11032488 0.42957568
0.045440324 -0.10968824 0.42982548
0.047417592 -0.10957585 0.42928764
0.041289616 -0.10735842 0.42901349
0.043382589 -0.10758013 0.4298178
0.080094039 -0.10610162 0.42935839
0.043293688 -0.1053412 0.4291563
0.082190417 -0.10415179 0.42974278
0.045315191 -0.099303722 0.42972979
0.084110007 -0.099964567 0.42958042
0.045316868 -0.097287238 0.42992195
0.081986576 -0.095808223 0.42985189
0.043224137 -0.093079485 0.42954576
0.079841405 -0.09363021 0.42963514
0.043207578 -0.09106186 0.42966485
0.043102726 -0.082814597 0.42912409
0.043146685 -0.080889978 0.42967021
0.085703999 -0.077272095 0.42968768
0.043110024 -0.076813981 0.4294813
0.043078989 -0.072750881 0.42932099
0.043101516 -0.070781015 0.42959979
0.087537691 -0.065044619 0.42955956
0.089629561 -0.065102637 0.4297289
0.043094408 -0.06275665 0.42981181
0.045013957 -0.060634572 0.42901516
0.043057147 -0.056705199 0.42958805
0.091425277 -0.056918044 0.42905888
0.043059982 -0.054694939 0.42960367
0.091460317 -0.054930191 0.42928976
0.0430547 -0.052693222 0.42967081
0.045026317 -0.05265677 0.42926946
0.091379404 -0.050859194 0.42912865
0.043030508 -0.048664507 0.42948318
0.091444373 -0.044866368 0.42970094
0.043057859 -0.038689859 0.42983732
0.043063816 -0.034691766 0.42983139
0.095447503 -0.034815971 0.42964849
0.043061327 -0.032682717 0.42983323
0.041048277 -0.02268145 0.42979962
0.095334008 -0.022744663 0.4294332
0.097396813 -0.020736184 0.42952564
0.097314335 -0.018712744 0.42919672
0.039023835 -0.014671804 0.42953879
0.099386677 -0.014722955 0.42937467
0.099313706 -0.012706669 0.42906857
0.039051127 -0.0046755983 0.42977312
0.037044968 -0.002672398 0.42975584
0.10343774 0.003355393 0.42924774
0.10547284 0.0093750646 0.42913511
0.035041388 0.017329751 0.42971462
0.037052207 0.033341706 0.42979768
0.1015984 0.035541873 0.42952961
0.099671759 0.039598223 0.429968
0.04504114 0.043345474 0.42954674
0.061122738 -0.15401128 0.43081743
0.063121684 -0.15383625 0.43003234
0.048436996 -0.1511503 0.43051371
0.050471015 -0.15106313 0.43008134
0.056723733 -0.15127262 0.43004048
0.058836512 -0.15139212 0.43013939
0.067325667 -0.15191936 0.43057439
0.052559879 -0.14906901 0.43068579
0.065040022 -0.14935063 0.43007255
0.048326466 -0.14873657 0.43010554
0.048290398 -0.14657342 0.43035799
0.05039379 -0.14671184 0.43056801
0.067045256 -0.14509417 0.4306007
0.046188775 -0.14437652 0.4306494
0.050320268 -0.14444943 0.4305039
0.046093989 -0.13994901 0.43069676
0.04814215 -0.13993874 0.43052837
0.048064198 -0.13767494 0.43035904
0.050138742 -0.1377601 0.43043271
0.072985604 -0.13636637 0.4305006
0.047989778 -0.13544275 0.43019164
0.072884411 -0.13413016 0.43046266
0.04799987 -0.13343908 0.43078083
0.070769116 -0.13399212 0.43030909
0.072879717 -0.13205008 0.43088338
0.047918085 -0.13114642 0.43040657
0.070757948 -0.13194047 0.43076894
0.047851391 -0.12894095 0.43027651
0.047825381 -0.12681368 0.43038711
0.047849409 -0.12483532 0.43093386
0.047761034 -0.12259032 0.43057755
0.043653104 -0.1204266 0.43074355
0.045683581 -0.12041484 0.43054479
0.043596666 -0.11823799 0.43045032
0.043544065 -0.11609016 0.43032908
0.04551189 -0.11189078 0.4302558
0.080487892 -0.11069671 0.43077227
0.07826677 -0.108399 0.43035033
0.080293387 -0.10839676 0.43007928
0.045531798 -0.10788079 0.43092352
0.082302749 -0.10634038 0.43006453
0.045493253 -0.10576534 0.43079102
0.04140659 -0.10363191 0.4307698
0.043396153 -0.10356979 0.43037793
0.043403242 -0.10155463 0.43064049
0.084222622 -0.098060861 0.43039802
0.084243141 -0.096064337 0.43080157
0.043286823 -0.095231004 0.43000492
0.08423546 -0.094021358 0.43099058
0.08207643 -0.093868077 0.4305456
0.084049806 -0.089761533 0.43052468
0.084081076 -0.087770633 0.43095478
0.083872683 -0.085534871 0.43005866
0.08603961 -0.08365114 0.43081224
0.043236509 -0.079047613 0.43065977
0.085870005 -0.075411648 0.43072361
0.041218437 -0.072992936 0.43085793
0.087862037 -0.07134968 0.43069386
0.041226447 -0.070991427 0.43098307
0.043181419 -0.068924442 0.43058386
0.091807418 -0.06522765 0.43031245
0.045142245 -0.062817618 0.43021199
0.043129571 -0.060797103 0.4301765
0.09184406 -0.059189901 0.43089378
0.043143284 -0.058825694 0.43044686
0.041141082 -0.050804917 0.43063211
0.043190908 -0.050844148 0.43099067
0.09375082 -0.047024265 0.43082345
0.043171234 -0.046813142 0.43084836
0.043110196 -0.044755522 0.4303191
0.043138437 -0.040763963 0.43058842
0.091529772 -0.040891118 0.43023986
0.043071456 -0.036704715 0.43001303
0.093565725 -0.036870666 0.43029714
0.04311477 -0.030728208 0.43038017
0.097705394 -0.028867196 0.43073857
0.041121915 -0.026722632 0.43047106
0.09771914 -0.022819588 0.43091211
0.041115444 -0.020703055 0.43045706
0.099713981 -0.016785547 0.43077952
0.035136051 0.0013326103 0.43089491
0.10362279 0.0013499581 0.43002915
0.1057537 0.0073847701 0.43031842
0.033130534 0.01135565 0.43073651
0.033081036 0.013345715 0.43021154
0.033072095 0.015344082 0.43002945
0.10799057 0.017500985 0.43086338
0.033120792 0.021385286 0.43075511
0.10599773 0.027584918 0.43089733
0.03714836 0.037439823 0.43088916
0.10189138 0.037660223 0.43072015
0.037127055 0.041433372 0.4305917
0.063366421 -0.15651578 0.43106124
0.059112292 -0.15418269 0.43153945
0.069553606 -0.15224998 0.4312267
0.04647189 -0.1514686 0.43160486
0.052777279 -0.15176456 0.43186525
0.069513656 -0.15008631 0.43159688
0.06731575 -0.14980958 0.4311249
0.046381216 -0.14703713 0.43190235
0.067253485 -0.14760044 0.43133926
0.069456689 -0.14787553 0.43186024
0.0483982 -0.14484511 0.43186519
0.04415562 -0.14238758 0.43153793
0.046194721 -0.14234549 0.4312436
0.071225017 -0.14104769 0.43148705
0.044141777 -0.14029287 0.43192104
0.046130266 -0.13801552 0.43154523
0.073292792 -0.13898568 0.43175018
0.07511092 -0.13442005 0.43113333
0.046049371 -0.13369709 0.43179089
0.075119689 -0.13239898 0.43171817
0.04594101 -0.13131139 0.43112382
0.074989937 -0.13009967 0.43142569
0.043922748 -0.12934883 0.43192777
0.045884013 -0.12913506 0.43105295
0.072839782 -0.1299229 0.43109515
0.045870677 -0.12703392 0.4312478
0.074927911 -0.12792468 0.43150735
0.043826897 -0.12498933 0.43173623
0.045820385 -0.12487328 0.43122393
0.043757681 -0.12273328 0.43134731
0.045771394 -0.12268494 0.43106782
0.041663084 -0.12052926 0.43120468
0.078734584 -0.11925913 0.43105143
0.080978863 -0.11955743 0.43186876
0.041626137 -0.11840902 0.43121499
0.078735359 -0.11722327 0.43145815
0.078737698 -0.11517727 0.43184549
0.041531976 -0.10599037 0.43188074
0.082520515 -0.10253759 0.43179309
0.043490462 -0.099738672 0.43168461
0.041448914 -0.097659342 0.43171993
0.086541876 -0.096367113 0.43189749
0.041438334 -0.095636316 0.431916
0.084239066 -0.091994323 0.43129361
0.043389715 -0.089428775 0.43161279
0.086276695 -0.085907057 0.43175313
0.041354675 -0.083315916 0.43177086
0.084083311 -0.083728299 0.43139464
0.088151127 -0.081716046 0.43124646
0.041325688 -0.079246819 0.43178684
0.088187873 -0.075669564 0.43195677
0.088051282 -0.07352595 0.43149489
0.04326731 -0.067036875 0.43148124
0.043291599 -0.065064609 0.43175101
0.041262012 -0.061017521 0.43173406
0.092002176 -0.061321191 0.43149132
0.04125616 -0.05497263 0.4317753
0.041233819 -0.052921619 0.43150246
0.093907207 -0.049122989 0.43144977
0.093885519 -0.045073178 0.43152115
0.093840621 -0.041019749 0.43145844
0.093885146 -0.039024055 0.43172815
0.095999651 -0.039058745 0.43197808
0.041232623 -0.036849 0.43173373
0.09578041 -0.036962423 0.43110651
0.041207038 -0.034812387 0.43136051
0.041216832 -0.032806318 0.43147007
0.041200545 -0.030794356 0.43131983
0.0392198 -0.028811572 0.43172276
0.04121118 -0.02879083 0.43142501
0.039233003 -0.026809439 0.43184146
0.099973708 -0.026920689 0.43169296
0.041231833 -0.024792133 0.43174106
0.097943701 -0.024891995 0.43185377
0.099886388 -0.020837855 0.43146539
0.039201494 -0.016736379 0.43141493
0.039170533 -0.012713242 0.43107408
0.101905 -0.010758894 0.43143839
0.037186407 -0.0046912488 0.43138346
0.10200376 -0.0047128662 0.43185019
0.103878 -0.0026795003 0.43108827
0.03517428 0.0053494493 0.43133733
0.03319345 0.007360172 0.43164697
0.03316506 0.017401746 0.43133077
0.031180654 0.023431771 0.43153071
0.029144039 0.025418462 0.43116266
0.029147252 0.027428819 0.43128681
0.035185568 0.031451158 0.43135098
0.072056077 -0.15523377 0.43280518
0.055086397 -0.15450753 0.43290648
0.057095952 -0.15431148 0.43212855
0.044430301 -0.15155435 0.43201977
0.054898571 -0.15190011 0.43203768
0.07169728 -0.15033254 0.43202063
0.044406231 -0.14939064 0.43235064
0.046490103 -0.14944752 0.43234533
0.071664147 -0.14817181 0.43244198
0.044343591 -0.1450545 0.43283993
0.071583852 -0.14593178 0.43256333
0.042210978 -0.14275187 0.4327952
0.075354874 -0.13694002 0.43206355
0.046130907 -0.13597502 0.43206039
0.044083845 -0.1339321 0.43271336
0.043980621 -0.13155413 0.43203756
0.041974541 -0.12962237 0.43298885
0.043902051 -0.12725793 0.43216857
0.074938998 -0.12591478 0.43207583
0.077058256 -0.12396206 0.43262705
0.079048425 -0.12179498 0.43236524
0.080942549 -0.1174632 0.43206853
0.081006825 -0.11550176 0.43280512
0.043785013 -0.11468157 0.43296072
0.043752432 -0.11254935 0.43288848
0.043650709 -0.11024813 0.4321174
0.082757078 -0.10896879 0.43208519
0.084873512 -0.10495038 0.43282172
0.041531015 -0.10191502 0.43224382
0.041510653 -0.099840388 0.43219754
0.043535769 -0.097809367 0.43231305
0.041452803 -0.093641587 0.43220446
0.043497827 -0.087632135 0.432825
0.088563725 -0.086173452 0.43283167
0.039412979 -0.085514143 0.43259695
0.041416485 -0.081416443 0.43251219
0.086305276 -0.081871644 0.43232006
0.041373175 -0.077320583 0.43235171
0.088366203 -0.077855863 0.43268919
0.041386489 -0.075316682 0.43255949
0.039358355 -0.073272675 0.43252519
0.090335146 -0.071707793 0.43269303
0.041359875 -0.069224082 0.43255985
0.041379679 -0.067238621 0.43279493
0.090206981 -0.067556374 0.43239349
0.041396976 -0.065236479 0.43299034
0.041367274 -0.063176915 0.43269417
0.092252113 -0.063519634 0.432569
0.041321062 -0.059085503 0.43235287
0.041298646 -0.057024468 0.43209261
0.039349221 -0.05509961 0.43284145
0.094198234 -0.053331822 0.43257427
0.041328229 -0.042967495 0.432607
0.041266073 -0.038885593 0.43205032
0.097979352 -0.026926039 0.43202204
0.039276503 -0.022801861 0.43226701
0.039284565 -0.02079615 0.43230262
0.10013784 -0.018880116 0.43258792
0.039254665 -0.010727489 0.43205294
0.039277084 -0.0087194061 0.43233946
0.10213196 -0.008760754 0.43238255
0.039271042 -0.0067151492 0.43216687
0.10413096 -0.0006647234 0.43213806
0.10621546 0.0033684699 0.43218285
0.043354802 0.043648191 0.43262786
0.069997288 -0.1553127 0.43332669
0.0467638 -0.1544999 0.43372682
0.048833083 -0.15447806 0.43343955
0.050924636 -0.15451142 0.43333262
0.040442534 -0.15209265 0.43390849
0.073924281 -0.14852808 0.43316913
0.076194644 -0.1489117 0.43397447
0.073855497 -0.14423311 0.43398589
0.073626913 -0.14171594 0.43323624
0.075838007 -0.14196332 0.43368271
0.042208839 -0.14068682 0.43328637
0.075652592 -0.13954827 0.43320367
0.044240803 -0.13851053 0.43325859
0.044242397 -0.13646401 0.43377903
0.042099245 -0.13209541 0.43396422
0.077523135 -0.13297099 0.43332401
0.077372395 -0.13065782 0.43301934
0.077410594 -0.12865818 0.43367863
0.041980308 -0.12761681 0.43348721
0.077301659 -0.12640339 0.43349886
0.041900456 -0.12328457 0.43338111
0.08337047 -0.11800236 0.43377763
0.039780516 -0.11485884 0.43385923
0.081002519 -0.11344241 0.43316138
0.03975245 -0.11276015 0.4339253
0.041762143 -0.11268366 0.43349159
0.041783623 -0.11069091 0.43393746
0.084893495 -0.10293474 0.4332667
0.0395406 -0.097967081 0.43315053
0.086846016 -0.094659537 0.43371931
0.04152165 -0.091768272 0.43305996
0.086757004 -0.090477519 0.43377122
0.041556653 -0.089817747 0.43354908
0.086683586 -0.088362478 0.43359679
0.041536793 -0.087736987 0.43346572
0.041553352 -0.085749529 0.43374869
0.039481182 -0.081598043 0.43350905
0.039518099 -0.079644583 0.43398255
0.090540685 -0.075941764 0.43334785
0.090499632 -0.073873334 0.43328339
0.039438721 -0.071393512 0.43344906
0.03939474 -0.057196714 0.43338233
0.094463088 -0.057549145 0.43359882
0.094516821 -0.055535458 0.43391687
0.094412193 -0.051419463 0.43366337
0.041438594 -0.049145613 0.43369365
0.04138393 -0.047061194 0.43319544
0.041408733 -0.045083277 0.43352899
0.094359495 -0.043273058 0.43377873
0.0413648 -0.040991422 0.43305025
0.039380625 -0.034982789 0.43349341
0.039392617 -0.032969326 0.43362525
0.039425928 -0.030986086 0.43399185
0.039413333 -0.024912955 0.43379965
0.039359979 -0.018829538 0.43322551
0.03736265 -0.010771813 0.43347579
0.037389547 -0.008756117 0.43367356
0.10243347 -0.0067599835 0.43369985
0.035315715 -0.00067634304 0.43311149
0.10869293 0.015578273 0.43369311
0.033339415 0.019498909 0.43351865
0.10455537 0.029773595 0.43348336
0.10468582 0.033875372 0.43385062
0.035321366 0.035614047 0.43302265
0.074541211 -0.15609521 0.43486419
0.04478151 -0.15483871 0.43485051
0.053145211 -0.15491715 0.43426946
0.042608183 -0.15243225 0.43469381
0.04253475 -0.15007624 0.43450537
0.044544064 -0.14778164 0.43425888
0.073983699 -0.14656506 0.43414253
0.076132081 -0.14670561 0.43424639
0.04239523 -0.14544329 0.43416867
0.042280558 -0.13882001 0.43439257
0.078000523 -0.13795963 0.43495783
0.042291619 -0.13679788 0.43499151
0.077893682 -0.13570035 0.43491817
0.042194758 -0.13444613 0.43447915
0.079711765 -0.13110562 0.43418458
0.04203786 -0.12571163 0.43437737
0.079507388 -0.12457604 0.43446857
0.041866403 -0.11498462 0.43420735
0.083416425 -0.11394244 0.4348006
0.037773293 -0.11290736 0.43455103
0.08332523 -0.11175973 0.43469551
0.039800733 -0.11085384 0.43466085
0.039659984 -0.10026262 0.43415737
0.039683584 -0.096274994 0.43485457
0.087018624 -0.092797749 0.43480277
0.088931508 -0.08855895 0.43436384
0.03958378 -0.087912656 0.43437597
0.088801324 -0.084354371 0.43417653
0.037573788 -0.083896711 0.43486574
0.088814706 -0.080284096 0.43466237
0.090912379 -0.080333486 0.43474022
0.090824462 -0.078211099 0.43448016
0.039546646 -0.077686705 0.43451265
0.039515156 -0.07560008 0.43420753
0.092777014 -0.074064992 0.43423709
0.090641104 -0.069916874 0.43429056
0.039557654 -0.067570351 0.43494534
0.039544012 -0.06550698 0.4347955
0.039531559 -0.06347131 0.43480673
0.039522972 -0.06142338 0.43469888
0.039477702 -0.059344165 0.43432191
0.037512075 -0.055374973 0.43496817
0.039463311 -0.051228601 0.43429741
0.039517481 -0.047252078 0.43489334
0.096711539 -0.047487512 0.43488058
0.03947562 -0.045162786 0.43435222
0.096695103 -0.045443282 0.43490243
0.039476022 -0.043154739 0.43441013
0.039495386 -0.041154411 0.43466333
0.10055035 -0.025042215 0.43424669
0.037453253 -0.022925122 0.43452436
0.037433304 -0.020893935 0.43423167
0.037482861 -0.018888054 0.43474519
0.037498485 -0.014850093 0.43493176
0.03748852 -0.006754328 0.43486148
0.10461133 -0.0047290423 0.43410429
0.10677236 0.0054205405 0.43443516
0.10877453 0.013552415 0.43403247
0.029352371 0.023580313 0.43416771
0.029379807 0.029672936 0.43459463
0.033420242 0.031686552 0.43455651
0.10478035 0.031878378 0.43432239
0.072408542 -0.15392347 0.4356645
0.074506089 -0.1539079 0.43530399
0.074452676 -0.15170036 0.43563586
0.076628089 -0.15184294 0.43572944
0.040583041 -0.15053312 0.43597096
0.042601775 -0.1482316 0.43573716
0.076196499 -0.14471802 0.43513292
0.038266167 -0.14131419 0.43551075
0.078188077 -0.1403957 0.43550998
0.04029185 -0.13910981 0.43543768
0.040243674 -0.13684806 0.43525791
0.040205583 -0.13466078 0.4353092
0.07978075 -0.12915677 0.43508843
0.081978641 -0.12728447 0.43591905
0.040097453 -0.12608808 0.43577662
0.081870869 -0.12503479 0.43578696
0.040043909 -0.12179561 0.43586576
0.041970517 -0.11732133 0.43503499
0.083563566 -0.11620886 0.43518203
0.085592926 -0.10997622 0.435855
0.039862897 -0.10896959 0.43553448
0.039759509 -0.1025694 0.43508106
0.087467082 -0.10151137 0.4359574
0.089411236 -0.09521734 0.43599957
0.039719556 -0.094316885 0.43538636
0.039709762 -0.092251562 0.43540281
0.039676204 -0.090136066 0.43514478
0.037683655 -0.088196367 0.43582022
0.039693769 -0.08407899 0.43577477
0.037631154 -0.081982151 0.43558192
0.037587296 -0.079849288 0.43512645
0.037579052 -0.073738247 0.43528959
0.092955299 -0.072165564 0.43520856
0.092999972 -0.06810277 0.43572846
0.094933651 -0.065991804 0.43521336
0.094895937 -0.063927725 0.4352029
0.09500888 -0.061955743 0.4358204
0.096867271 -0.055720963 0.43514177
0.039552439 -0.05336355 0.4351843
0.037551489 -0.045305956 0.43564555
0.039585713 -0.039223775 0.43569759
0.039530605 -0.037135217 0.43511769
0.037566673 -0.03313525 0.43581894
0.096712098 -0.033247344 0.43536821
0.098903753 -0.033296227 0.43592888
0.037582565 -0.031129131 0.43599525
0.037582606 -0.029097075 0.43597427
0.03758252 -0.027066372 0.43595189
0.03755334 -0.016907016 0.43565613
0.035545468 -0.0027096246 0.43591586
0.033496778 0.0013468051 0.43564478
0.10712572 0.0013698941 0.43590033
0.033508044 0.0054023718 0.43576461
0.031480663 0.0094535332 0.43566254
0.031499937 0.019615687 0.43596497
0.031440731 0.021613836 0.43523681
0.027392484 0.025659624 0.43516058
0.027430972 0.02772478 0.43586397
0.035532374 0.033793215 0.43560606
0.041563254 0.043882001 0.43500012
0.076810382 -0.15430772 0.43611753
0.040577348 -0.1484258 0.43646428
0.040424194 -0.14163928 0.43637323
0.038239032 -0.13497691 0.4364678
0.040241368 -0.13272248 0.43616
0.07986927 -0.12721381 0.43600881
0.040100619 -0.1240105 0.43607861
0.081915118 -0.12302032 0.43644935
0.040040154 -0.11971868 0.43607748
0.040005386 -0.1175807 0.43608779
0.037920248 -0.11541846 0.43604833
0.085659474 -0.10799996 0.43655455
0.039882343 -0.10493689 0.43625867
0.087604329 -0.10372508 0.43630636
0.037852064 -0.10089305 0.43694684
0.037784811 -0.096611381 0.43642828
0.03779966 -0.094594955 0.43670791
0.089367509 -0.09105996 0.43629429
0.091516837 -0.087033309 0.43695715
0.035668366 -0.086203083 0.43621594
0.037704397 -0.086224295 0.43629763
0.035684105 -0.084220476 0.43663675
0.091361329 -0.084836513 0.43647024
0.091246352 -0.082672134 0.43609619
0.037688367 -0.076001026 0.43653092
0.093382023 -0.076589577 0.43685246
0.037699476 -0.071954466 0.4368664
0.039704245 -0.069858335 0.43654352
0.037680861 -0.065809593 0.43680033
0.037685309 -0.061745513 0.43696302
0.095061757 -0.059951458 0.43621179
0.097250737 -0.057989642 0.43678832
0.03761797 -0.053505301 0.43629572
0.037662212 -0.049498137 0.43681163
0.039636753 -0.049414806 0.43613878
0.03766695 -0.047467355 0.43692583
0.096959375 -0.04352691 0.43615961
0.097073391 -0.041536279 0.43674114
0.037665069 -0.02507877 0.43687457
0.10096932 -0.023104887 0.43610647
0.035620257 -0.021010594 0.43683022
0.037646174 -0.012874376 0.43671167
0.035625808 -0.0067826831 0.43686098
0.10523058 -0.0068005691 0.43671718
0.035593238 -0.0047448738 0.4364883
0.033570565 -0.002712908 0.43660441
0.031550001 0.011510404 0.43676698
0.031549681 0.017613789 0.43673369
0.031501882 0.031796165 0.43602347
0.035590045 0.039949924 0.43629661
0.035641268 0.042038418 0.43690121
0.03861269 -0.1488699 0.43791264
0.040614773 -0.14647603 0.43739313
0.040543977 -0.14413913 0.43715572
0.07862059 -0.14326386 0.43732882
0.080730833 -0.1411721 0.43763635
0.082931086 -0.14136241 0.43788531
0.080602966 -0.13886127 0.43752038
0.080494449 -0.13656653 0.43741611
0.04029157 -0.13084275 0.43715379
0.040283121 -0.12871324 0.43735957
0.03819079 -0.12450002 0.43793222
0.084190652 -0.12331794 0.4372105
0.038102746 -0.12213452 0.43715981
0.038063254 -0.11996449 0.43710274
0.038038827 -0.11781779 0.4370445
0.039993275 -0.10725092 0.43714026
0.08780314 -0.099827714 0.43788448
0.089893438 -0.099858314 0.43779725
0.037871152 -0.098879687 0.43730333
0.089723155 -0.093470901 0.43774867
0.037806723 -0.090531029 0.43716329
0.037767652 -0.078202859 0.43742427
0.037762173 -0.070026971 0.43760413
0.093331821 -0.07040628 0.43717358
0.037775297 -0.067992821 0.43775383
0.097432792 -0.060157157 0.43746772
0.097453065 -0.054014951 0.43789756
0.097244933 -0.051848371 0.43708628
0.037702713 -0.043436863 0.43728957
0.037740447 -0.041444454 0.43777305
0.037690811 -0.039358191 0.4372161
0.037736911 -0.03736008 0.43778315
0.099391781 -0.035513759 0.43797553
0.099331282 -0.031398136 0.43782952
0.035645511 -0.027129747 0.43713358
0.03567278 -0.019009396 0.4374038
0.035650685 -0.016961206 0.43721327
0.10335092 -0.01500366 0.43750837
0.035688635 -0.014948471 0.43759468
0.035705011 -0.012916576 0.4378491
0.035653479 -0.010858045 0.43711996
0.035690244 -0.0088320961 0.43761092
0.033602927 -0.00068222504 0.43703869
0.031622473 0.013573544 0.43770322
0.11388429 0.02599833 0.43731624
0.033628948 0.033924293 0.43728372
0.035654735 0.037978873 0.43711305
0.038680933 -0.15123181 0.43815205
0.079099432 -0.15045385 0.43815202
0.038622703 -0.14681442 0.43854541
0.078939587 -0.14594595 0.43849602
0.038542852 -0.14442265 0.43815649
0.080919333 -0.14361218 0.43806428
0.038462169 -0.1399572 0.43822923
0.083002314 -0.13936509 0.43876731
0.038384091 -0.13343175 0.43858105
0.038349379 -0.13124321 0.43862715
0.082530648 -0.13020557 0.43833417
0.038294718 -0.12900673 0.43844372
0.038270533 -0.12681831 0.43843383
0.036110535 -0.12236918 0.43811703
0.036150876 -0.12046576 0.43899485
0.08647345 -0.11944665 0.43879515
0.036057126 -0.11394273 0.43859559
0.038103975 -0.11185763 0.43870875
0.088304624 -0.11079241 0.43880716
0.088143215 -0.10851852 0.43837103
0.038080122 -0.10767912 0.43895262
0.088091433 -0.106369 0.43839511
0.038050372 -0.10552655 0.43877485
0.037971139 -0.10324566 0.43801191
0.092133746 -0.095898591 0.43889141
0.037945077 -0.092933163 0.43865499
0.035832096 -0.082510814 0.43848214
0.09371461 -0.07893803 0.43825606
0.03577229 -0.076240703 0.43800634
0.035789203 -0.070137598 0.43837354
0.095617935 -0.068522029 0.43815887
0.037843231 -0.064036123 0.43866646
0.037803274 -0.059889052 0.43828762
0.037811503 -0.057862032 0.43849695
0.037814662 -0.05173143 0.43850672
0.09755946 -0.049959388 0.43859679
0.035772849 -0.045617469 0.43868667
0.099611223 -0.043805767 0.43865076
0.099623457 -0.041744214 0.43877622
0.1014637 -0.031418532 0.43804365
0.1015402 -0.029396838 0.43839273
0.03573247 -0.02515652 0.43815616
0.035755824 -0.023133749 0.43839866
0.10370171 -0.021203261 0.43886203
0.10357004 -0.012984078 0.43843272
0.033727843 0.0033969523 0.43864992
0.10585219 0.036306392 0.43863314
0.039835069 0.044222195 0.43829376
0.038841821 -0.15396987 0.43940878
0.036728691 -0.15180147 0.4399322
0.03666506 -0.14943251 0.4396964
0.079145111 -0.14843296 0.43902865
0.036586672 -0.14701319 0.43928114
0.038487464 -0.13798271 0.43900514
0.080814727 -0.13503329 0.43972051
0.084457122 -0.12161656 0.43902716
0.086501233 -0.11739756 0.43934375
0.086451687 -0.11524539 0.4394851
0.086355999 -0.11303658 0.43937683
0.038113102 -0.10980731 0.43900749
0.036091369 -0.10579412 0.439996
0.035981245 -0.099299967 0.43920559
0.090230398 -0.098152734 0.43968216
0.036002517 -0.097321242 0.43973815
0.092135526 -0.091757916 0.43941987
0.092018463 -0.089588843 0.43914729
0.094085895 -0.08544635 0.43931875
0.093990885 -0.081228405 0.43931612
0.035916027 -0.080643453 0.43954378
0.035874918 -0.078525901 0.43924233
0.035889503 -0.07445468 0.43961567
0.035908185 -0.068340063 0.4399775
0.03588428 -0.064188905 0.43978316
0.035844527 -0.060026005 0.43936703
0.035828263 -0.057968259 0.4392727
0.035862289 -0.04368433 0.43982053
0.035875063 -0.041637801 0.43983477
0.099705927 -0.037677716 0.43931589
0.037904788 -0.035485905 0.43973604
0.10392369 -0.019205242 0.43988425
0.033781309 -0.017052159 0.43937233
0.031748652 0.0054460838 0.43943846
0.031768594 0.0074947514 0.43968758
0.11000638 0.0075428206 0.43903086
0.11443333 0.019939454 0.43958378
0.10618932 0.038478207 0.43992123
0.03792474 0.044369645 0.43979701
0.036793303 -0.15418351 0.44016328
0.079689018 -0.15371279 0.44076094
0.081437126 -0.14664146 0.44025508
0.083261907 -0.13770074 0.44070822
0.08312723 -0.13538189 0.4405629
0.085365869 -0.13558614 0.44088757
0.083069928 -0.13317174 0.44073606
0.085232049 -0.13327867 0.44075143
0.03642679 -0.13175857 0.44047135
0.085015476 -0.12874137 0.4406215
0.084941223 -0.12652244 0.44068685
0.036150716 -0.11219236 0.44007936
0.036161736 -0.11013903 0.44038936
0.036134478 -0.10801475 0.44037423
0.090453714 -0.1025658 0.44019872
0.036095489 -0.095494874 0.44097829
0.092429139 -0.094141565 0.44059992
0.036055725 -0.093317449 0.44058299
0.03598208 -0.062297132 0.44093385
0.035904076 -0.056022864 0.44012722
0.035946187 -0.054041635 0.44072145
0.035965826 -0.052005008 0.44087359
0.099981457 -0.039840359 0.44048575
0.035960894 -0.035581641 0.4409171
0.033889424 -0.021206215 0.44077861
0.10407413 -0.017170573 0.44054544
0.033880804 -0.015044642 0.44057187
0.033843096 -0.012979252 0.44013545
0.10607717 -0.008914629 0.44018915
0.033841565 -0.0047825463 0.44011548
0.031801175 0.0034077496 0.44019237
0.11034224 0.0096305236 0.44032973
0.11030938 0.011693182 0.44021228
0.031819489 0.0157075 0.44036281
0.11262768 0.017914249 0.44087952
0.10424735 0.040589187 0.44055772
0.079973318 -0.15639259 0.44167379
0.034749482 -0.15232022 0.44155139
0.034659095 -0.14769647 0.44143692
0.034615643 -0.14540277 0.441385
0.036688596 -0.14531867 0.44100231
0.036694352 -0.14323871 0.44156858
0.036647264 -0.14097066 0.44148389
0.036570352 -0.1364916 0.44148976
0.036533546 -0.13428126 0.44149646
0.085254572 -0.13119715 0.44133461
0.036461595 -0.12981962 0.44132754
0.036418952 -0.12759289 0.44123179
0.087277174 -0.12686948 0.44159541
0.036422201 -0.1254964 0.44150677
0.087098427 -0.12450362 0.4411307
0.089096241 -0.11807491 0.44157284
0.036331248 -0.11689792 0.4417527
0.034167994 -0.10621699 0.44180596
0.036194 -0.10401437 0.44138077
0.036169607 -0.10190731 0.44138572
0.034113668 -0.09987361 0.44177267
0.092775241 -0.098668866 0.44169757
0.034056123 -0.095575526 0.44137511
0.034074325 -0.093545496 0.44168121
0.036075123 -0.091332398 0.44106528
0.036146417 -0.089440979 0.4419997
0.094461493 -0.083716728 0.44133395
0.033970345 -0.080924913 0.44109294
0.033925306 -0.05613393 0.44105616
0.033956543 -0.054134406 0.44153035
0.036004785 -0.050014962 0.44141567
0.036045492 -0.048010744 0.44197926
0.10035263 -0.048257686 0.44174343
0.036014929 -0.039748099 0.44157314
0.036012404 -0.037681401 0.44155219
0.10224374 -0.03579155 0.44128579
0.035978638 -0.031483002 0.4411141
0.10433724 -0.02340482 0.441558
0.033974491 -0.010968676 0.44173601
0.033919107 -0.0088983644 0.44105637
0.10857072 -0.0048176521 0.44175228
0.10858456 -0.0027493278 0.44183642
0.031903096 0.001364766 0.44161668
0.029805265 0.0095797824 0.44100732
0.029827027 0.019844158 0.44119141
0.029813785 0.021897664 0.44108731
0.025708105 0.028058715 0.44102299
0.027794018 0.030149672 0.44171235
0.08214879 -0.15432827 0.44219005
0.082020804 -0.14981867 0.44277909
0.084019393 -0.14747502 0.44241056
0.083964162 -0.14524311 0.44273719
0.085815258 -0.14054407 0.44212136
0.036680993 -0.13900165 0.4423722
0.085778549 -0.13837385 0.44252005
0.08761432 -0.12945825 0.44277188
0.087295875 -0.12269073 0.44255689
0.036435258 -0.1192988 0.44265467
0.089156441 -0.11395765 0.44265541
0.034266274 -0.1106742 0.44262698
0.034250658 -0.1085697 0.44274729
0.092922844 -0.1009042 0.44208276
0.034141485 -0.097863935 0.44221744
0.094808057 -0.090261884 0.44221708
0.094908476 -0.08828827 0.44296256
0.03414404 -0.087522604 0.44291908
0.03406683 -0.085277326 0.44212463
0.096651815 -0.07757654 0.44220728
0.096709207 -0.075553194 0.44269207
0.096694209 -0.073448926 0.44276729
0.034083579 -0.072934188 0.44289419
0.03609468 -0.072806716 0.4421221
0.034051146 -0.068732865 0.44258264
0.036129951 -0.066681415 0.44266042
0.098670058 -0.062993385 0.44286892
0.034033611 -0.041899037 0.44261384
0.036051892 -0.033608619 0.44202933
0.034067649 -0.023381623 0.44298804
0.033991609 -0.019203229 0.44202635
0.031975836 -0.011001855 0.44267562
0.11096568 0.0055322582 0.44288725
0.029892128 0.0075474246 0.44213301
0.029899737 0.013724914 0.44229686
0.029926216 0.015803428 0.44282126
0.082557268 -0.15725262 0.44372341
0.034949351 -0.15533045 0.44355473
0.082212195 -0.15230019 0.44317916
0.034727857 -0.14166285 0.44377807
0.034703109 -0.13945323 0.44392064
0.034638815 -0.13710606 0.44355586
0.034615319 -0.13491318 0.44369772
0.087904498 -0.13201496 0.44377965
0.034560345 -0.13052513 0.44383359
0.089372605 -0.11633688 0.44334286
0.091233365 -0.10764827 0.44337285
0.091295525 -0.10561194 0.44395077
0.034313455 -0.10461555 0.44398096
0.093371846 -0.10348145 0.44388542
0.096995428 -0.082018912 0.44338351
0.034149654 -0.079259731 0.4434216
0.096862353 -0.071506672 0.44374549
0.034070361 -0.052259423 0.44307855
0.10077245 -0.046394411 0.44367796
0.034075759 -0.039891243 0.44317552
0.10280713 -0.038057607 0.44361028
0.034068625 -0.037811682 0.44308272
0.034091085 -0.035779305 0.4433611
0.03613456 -0.029565876 0.44317535
0.10490742 -0.029762356 0.44378543
0.034120284 -0.027546654 0.44379511
0.034069274 -0.02544328 0.44307715
0.03202932 -0.013069591 0.44336176
0.032015555 -0.0068750046 0.44311914
0.10898299 -0.0006828857 0.44345763
0.029963104 0.011692257 0.44328848
0.029968666 0.017888905 0.44336796
