# .PCD v0.7 - Point Cloud Data file format
VERSION 0.7
FIELDS x y z
SIZE 4 4 4
TYPE F F F
COUNT 1 1 1
WIDTH 1524
HEIGHT 1
VIEWPOINT 0 0 0 1 0 0 0
POINTS 1524
DATA ascii
0.11535051 -0.18254575 0.47293708
0.1170209 -0.18152755 0.46977198
0.11944504 -0.18171063 0.46967709
0.12207438 -0.18215352 0.4702611
0.12479734 -0.18273953 0.47121122
0.12658352 -0.18195687 0.4686327
0.12972458 -0.18311435 0.4710179
0.13210654 -0.18317775 0.47058478
0.1341213 -0.18272218 0.46884444
0.13590972 -0.18201515 0.46642175
0.13819976 -0.1819551 0.46568412
0.1410042 -0.18258257 0.46668819
0.14361775 -0.18294545 0.46701244
0.14563446 -0.18255162 0.46542957
0.14661048 -0.18086527 0.46055758
0.14920987 -0.18123981 0.4609215
0.15186875 -0.18163793 0.46136698
0.15409155 -0.18152711 0.46053424
0.15579987 -0.18083884 0.45820707
0.16008198 -0.18308088 0.46339604
0.16235913 -0.18301141 0.46267164
0.16468747 -0.18301804 0.46217969
0.16738641 -0.18341194 0.46268845
0.16997002 -0.18366846 0.46288884
0.17327864 -0.18468727 0.46500668
0.17474338 -0.1837541 0.46224934
0.17799677 -0.18469836 0.46425492
0.18081677 -0.18516988 0.46506879
0.18223077 -0.18420416 0.46235439
0.1838706 -0.18349962 0.46029752
0.18917213 -0.18641602 0.46736068
0.19163223 -0.18648897 0.46734798
0.19418897 -0.18666252 0.46761155
0.19648989 -0.18658215 0.46729612
0.20033428 -0.18794437 0.47063422
0.20230961 -0.18756567 0.4696289
0.2066678 -0.18936983 0.47417265
0.20929319 -0.18955395 0.47470245
0.21185791 -0.18968692 0.47512138
0.21375759 -0.18921666 0.47411418
0.21687102 -0.18984066 0.47586662
0.21884976 -0.18944114 0.47513947
0.22045071 -0.18874705 0.47369018
nan nan nan
nan nan nan
nan nan nan
nan nan nan
nan nan nan
nan nan nan
nan nan nan
nan nan nan
nan nan nan
nan nan nan
nan nan nan
nan nan nan
nan nan nan
nan nan nan
nan nan nan
nan nan nan
nan nan nan
nan nan nan
nan nan nan
nan nan nan
nan nan nan
nan nan nan
nan nan nan
nan nan nan
nan nan nan
nan nan nan
nan nan nan
nan nan nan
nan nan nan
nan nan nan
nan nan nan
nan nan nan
nan nan nan
nan nan nan
nan nan nan
nan nan nan
nan nan nan
-0.19737372 -0.16137901 0.41043705
-0.19586104 -0.16186754 0.41130084
-0.19271201 -0.1609862 0.40876088
-0.19089647 -0.16121608 0.40904504
-0.18939956 -0.16172326 0.41012165
-0.18806596 -0.16237524 0.41157949
-0.18666345 -0.16299795 0.41299966
-0.1846381 -0.16307572 0.41309088
-0.1828666 -0.16337337 0.4137764
-0.18228069 -0.16473977 0.41724324
-0.18008627 -0.16468823 0.41714823
-0.17829259 -0.16499883 0.41799313
-0.17712133 -0.16592161 0.42040387
-0.17505759 -0.16599905 0.42074803
-0.17329566 -0.16636205 0.42185351
-0.17138149 -0.16659495 0.42268175
-0.16935042 -0.16671358 0.42324272
-0.16744344 -0.16696918 0.42416632
-0.16575758 -0.1674505 0.4257395
-0.16484697 -0.16873416 0.42935562
-0.16202272 -0.16807923 0.42807746
-0.16058743 -0.16884834 0.43046391
-0.15865359 -0.16913578 0.43160951
-0.15752038 -0.17027849 0.43499401
-0.1551231 -0.17006622 0.43494239
-0.15339197 -0.17057103 0.43676361
-0.15034647 -0.1696393 0.43490466
-0.1481549 -0.16963834 0.43541357
-0.14641072 -0.1701749 0.43734181
-0.14471774 -0.17077146 0.43945128
-0.14297698 -0.17132783 0.44146088
-0.14075513 -0.17133307 0.44205204
-0.13864391 -0.17145875 0.44297788
-0.13628417 -0.17129032 0.44308946
-0.13419934 -0.17145513 0.44412586
-0.132961 -0.17272007 0.44799268
-0.13151084 -0.17375214 0.45127228
-0.12949884 -0.17408493 0.45274034
-0.12750454 -0.17443222 0.45423296
-0.1255914 -0.1749045 0.45603839
-0.12306324 -0.17454308 0.45567036
-0.12175573 -0.1759313 0.45985773
-0.11970884 -0.1762449 0.4612667
-0.11715664 -0.17585099 0.46078309
-0.11442525 -0.17515106 0.45950383
-0.11277533 -0.1761117 0.46258181
-0.11066902 -0.17640007 0.46385708
-0.10799683 -0.17576347 0.4627088
-0.10654055 -0.17712094 0.46681213
-0.10509843 -0.17855111 0.47105831
-0.10265314 -0.17831375 0.47094968
-0.100842 -0.17919235 0.47375882
-0.09832757 -0.17884889 0.47329679
-0.095923685 -0.17867829 0.47331676
-0.093288869 -0.17805849 0.47212908
-0.09147758 -0.17901894 0.47513238
-0.089064911 -0.17883755 0.47504953
-0.086745642 -0.17882244 0.47543404
-0.084648058 -0.17927603 0.47704992
-0.082155243 -0.17891027 0.47642803
-0.080090396 -0.17946561 0.47830144
-0.078062519 -0.18015523 0.48047733
-0.075785473 -0.18027779 0.48118463
-0.073068112 -0.17932749 0.47899505
-0.071625754 -0.18156259 0.48527369
-0.069051638 -0.18096621 0.48401383
-0.066818647 -0.18126927 0.48511645
-0.064586118 -0.18157862 0.48626357
-0.061986469 -0.18085615 0.48458824
-0.059422117 -0.18016686 0.48302642
-0.057375643 -0.18107149 0.48567966
-0.05495736 -0.18081258 0.48525539
-0.052772231 -0.18134777 0.48690391
-0.050610773 -0.18200043 0.48891222
-0.048323996 -0.18226011 0.48979101
-0.045968447 -0.18225607 0.49000439
-0.043627921 -0.18233043 0.49038553
-0.041259151 -0.18227063 0.49041688
-0.038825992 -0.18190193 0.48961669
-0.036605347 -0.18256155 0.49152544
-0.034394994 -0.18334869 0.49382189
-0.032034378 -0.18350041 0.49433222
-0.029557105 -0.1828364 0.49270406
-0.027129797 -0.18239301 0.49163744
-0.024671219 -0.18165103 0.4897221
-0.022524729 -0.18327305 0.49419159
-0.020207986 -0.18372804 0.49553147
-0.017832618 -0.18386656 0.49598584
-0.015462968 -0.18392368 0.49622068
-0.013088109 -0.18392833 0.49629787
-0.010750198 -0.18458559 0.49809247
-0.0083436705 -0.18443562 0.49773639
-0.00595999 -0.18437099 0.49759436
-0.0035531148 -0.18302561 0.49397942
-0.0011850222 -0.18230125 0.4920404
0.0011780903 -0.18371755 0.49586308
0.0035747972 -0.18412633 0.49699387
0.0058886511 -0.18214814 0.49163833
0.0082701836 -0.18279515 0.49335256
0.010605231 -0.18235551 0.49211797
0.012883889 -0.18128221 0.48917368
0.015229801 -0.18113437 0.48875406
0.017754294 -0.18304293 0.4938235
0.020124389 -0.18309817 0.49387601
0.022261132 -0.18122599 0.48877355
0.024115372 -0.17764211 0.47899842
0.025850447 -0.17386413 0.46874559
0.027932538 -0.17285061 0.46587643
0.029498283 -0.16901357 0.455441
0.03152838 -0.16819569 0.45310402
0.033430222 -0.16682854 0.44929925
0.035392635 -0.16592395 0.44670263
0.037459422 -0.16556948 0.44561285
0.039355647 -0.16455318 0.44270399
0.041246556 -0.16360559 0.44000638
0.043244667 -0.16315359 0.43862858
0.045297898 -0.16295496 0.43787968
0.047387227 -0.16288373 0.43751195
0.049443662 -0.16270913 0.43685248
0.051582035 -0.16282056 0.4369083
0.053616475 -0.16259374 0.43609497
0.055658877 -0.16244791 0.43548498
0.0575523 -0.16186674 0.43365651
0.059570789 -0.16165152 0.4328337
0.061606791 -0.16149588 0.43217087
0.064050749 -0.16239808 0.43428525
0.066135354 -0.16238159 0.43396509
0.068588778 -0.16322319 0.43588403
0.070978634 -0.16385339 0.43727395
0.073261872 -0.16423953 0.43799618
0.076238781 -0.16609737 0.44259995
0.078929134 -0.16723147 0.44527861
0.081376426 -0.16781765 0.44645548
0.085023031 -0.17079753 0.45401725
0.087510198 -0.17134146 0.45504096
0.092049748 -0.17576228 0.46638951
0.098019645 -0.18267955 0.48427847
0.10267086 -0.18682677 0.49482292
0.10510052 -0.18684903 0.4943721
0.10728251 -0.18645197 0.4928562
0.1094237 -0.18599081 0.49111333
0.1109826 -0.18459184 0.48692599
0.11325198 -0.18439767 0.4858619
0.11556485 -0.18426462 0.48500249
0.11790726 -0.18422401 0.484328
0.11947566 -0.18295869 0.48046386
0.12173028 -0.18281269 0.47950104
0.12361906 -0.18211721 0.47710958
0.12545182 -0.18134305 0.47451642
0.12778287 -0.18132648 0.47390804
0.13028742 -0.18156771 0.47389892
0.13260733 -0.18151568 0.47320703
0.13544078 -0.18217106 0.47429946
0.13811417 -0.1825919 0.47477752
0.13891736 -0.18057188 0.46892366
0.14269486 -0.1824154 0.47307763
0.14497642 -0.18232128 0.47220984
0.14725047 -0.18221988 0.47132361
0.14915457 -0.1816735 0.46932992
0.15179059 -0.18200101 0.46957803
0.15433465 -0.18222742 0.46954709
0.15645653 -0.1819572 0.46827766
0.15873934 -0.18187746 0.46748304
0.16072434 -0.18148004 0.465873
0.16322657 -0.18165176 0.46576548
0.16647075 -0.18261416 0.46770665
0.16869149 -0.18247472 0.46682283
0.17125219 -0.18268302 0.46686918
0.17379135 -0.1828769 0.46686083
0.17734428 -0.18409932 0.4695732
0.18133895 -0.18575461 0.47336617
0.18418446 -0.18621774 0.474132
0.18634638 -0.18596633 0.47314498
0.18877906 -0.18599972 0.47288233
0.19070244 -0.1855318 0.47140372
0.19266307 -0.18508922 0.47005761
0.19477014 -0.18482211 0.46917397
0.1992766 -0.18680407 0.47403955
0.2018739 -0.18699528 0.47435847
0.20485233 -0.18750677 0.47559083
0.20735167 -0.1875646 0.47571486
0.21008921 -0.18784028 0.47645113
0.21287185 -0.18814021 0.47727504
0.21542071 -0.18826583 0.4776912
0.21767826 -0.18809539 0.4774428
0.21992761 -0.18795703 0.4772763
0.22225723 -0.1878617 0.47732329
nan nan nan
nan nan nan
nan nan nan
nan nan nan
nan nan nan
nan nan nan
nan nan nan
nan nan nan
nan nan nan
nan nan nan
nan nan nan
nan nan nan
nan nan nan
nan nan nan
nan nan nan
nan nan nan
nan nan nan
nan nan nan
nan nan nan
nan nan nan
nan nan nan
nan nan nan
nan nan nan
nan nan nan
nan nan nan
nan nan nan
nan nan nan
nan nan nan
nan nan nan
nan nan nan
nan nan nan
nan nan nan
nan nan nan
nan nan nan
nan nan nan
-0.20001748 -0.15809703 0.40781429
-0.19962291 -0.15943256 0.41085112
-0.19767331 -0.15954185 0.410779
-0.1953235 -0.15934286 0.409915
-0.19308464 -0.1592176 0.40933299
-0.19122675 -0.1594117 0.40957308
-0.18980825 -0.1599827 0.41083369
-0.18845084 -0.16059418 0.41228759
-0.18689418 -0.16107868 0.41341519
-0.18545148 -0.16166469 0.41484079
-0.18415688 -0.16238631 0.41666654
-0.18291165 -0.16317382 0.41871414
-0.18080904 -0.16322649 0.41887602
-0.1797851 -0.16424334 0.42158863
-0.17728075 -0.16392288 0.42092147
-0.17558992 -0.16434956 0.42221066
-0.17403674 -0.16491133 0.42388573
-0.17177121 -0.16482736 0.42390114
-0.16920903 -0.16443279 0.42319262
-0.16708387 -0.16446859 0.4236052
-0.16663904 -0.16616175 0.42836618
-0.16519628 -0.16690288 0.43066305
-0.1632185 -0.16714318 0.43168417
-0.16098593 -0.16709194 0.43201458
-0.1587165 -0.16701335 0.43227336
-0.15659609 -0.16708964 0.43297118
-0.15509103 -0.16781645 0.43539536
-0.15283725 -0.1677566 0.43576533
-0.15123788 -0.16843836 0.43806314
-0.14780228 -0.16704774 0.43500742
-0.14629222 -0.16782473 0.43761799
-0.14451103 -0.16832574 0.43951303
-0.14285894 -0.16897586 0.44178608
-0.14152902 -0.17003508 0.44515875
-0.13919024 -0.16991426 0.44544515
-0.13656826 -0.16941839 0.44474596
-0.13563611 -0.17105523 0.44963399
-0.13349034 -0.17117472 0.45056424
-0.13321167 -0.17373282 0.45790738
-0.13095683 -0.17377768 0.45863551
-0.12861884 -0.17369039 0.45899907
-0.1271667 -0.17482305 0.4626312
-0.12446135 -0.17423658 0.46164382
-0.12270531 -0.17500363 0.46424314
-0.12031174 -0.17485721 0.46444696
-0.1186552 -0.1757971 0.4675388
-0.11586397 -0.17507537 0.46615511
-0.11402915 -0.17575839 0.46853763
-0.11195097 -0.1761113 0.47002769
-0.10968418 -0.17619179 0.47073448
-0.10747337 -0.17635126 0.47169483
-0.10571788 -0.17728123 0.47470361
-0.10322084 -0.17699732 0.4744058
-0.10106041 -0.17727429 0.47565362
-0.098794654 -0.1773752 0.47641432
-0.096712872 -0.17783508 0.47808227
-0.094181001 -0.17745301 0.47751364
-0.092168637 -0.17805521 0.47957829
-0.089644633 -0.17769045 0.47899646
-0.087212011 -0.1774755 0.4788439
-0.085592002 -0.17894769 0.4832305
-0.083321519 -0.17912053 0.48406899
-0.080914013 -0.17898341 0.48409697
-0.07860402 -0.17903984 0.48458928
-0.076519325 -0.1796492 0.4866066
-0.07436455 -0.18014351 0.48825499
-0.072475091 -0.18131691 0.49179065
-0.06942144 -0.17957461 0.48735738
-0.067199714 -0.17992027 0.48863202
-0.064717606 -0.17958455 0.48798063
-0.062539048 -0.18008037 0.48963261
-0.060339157 -0.18056729 0.49121827
-0.058211092 -0.18131642 0.49348673
-0.055762894 -0.18107224 0.4930962
-0.053156916 -0.18028733 0.49117184
-0.050783765 -0.18023823 0.49127874
-0.048400406 -0.18016241 0.49126896
-0.046136077 -0.18052688 0.49248773
-0.043766025 -0.18057705 0.49278972
-0.041404255 -0.18058106 0.4930096
-0.039163008 -0.18115914 0.49472117
-0.036968779 -0.18202507 0.49728033
-0.034568284 -0.18194088 0.497168
-0.032159742 -0.18178019 0.49689063
-0.029628119 -0.18084258 0.49447256
-0.027436318 -0.1821201 0.49805102
-0.024930047 -0.18121853 0.49571446
-0.02258594 -0.18143015 0.49640632
-0.02031268 -0.18234362 0.49895862
-0.017879957 -0.18185778 0.49771008
-0.01548126 -0.18181178 0.49766508
-0.013154188 -0.18251841 0.49968052
-0.01078582 -0.18283835 0.50060517
-0.0083811358 -0.18254957 0.49986327
-0.0059745596 -0.18246759 0.49967125
-0.003586706 -0.18240266 0.49950966
-0.0012021511 -0.18258075 0.50001359
0.0012029868 -0.18270768 0.50036126
0.0035739176 -0.18175231 0.49772868
0.0059592105 -0.18199882 0.49838758
0.0083374465 -0.1819506 0.49822313
0.010652239 -0.1808306 0.49515209
0.013059431 -0.1811875 0.49608102
0.015463727 -0.18158971 0.49711758
0.017810915 -0.18130349 0.4962534
0.020152768 -0.18102051 0.49542627
0.022212405 -0.17854133 0.48854575
0.023972185 -0.17422475 0.47666812
0.025897946 -0.17187792 0.47014028
0.027634034 -0.16873281 0.46145833
0.029665099 -0.16773397 0.45859227
0.031364191 -0.16511028 0.45131221
0.033400588 -0.164499 0.4494949
0.035418671 -0.16386239 0.44763476
0.03744157 -0.16331795 0.44601271
0.039165199 -0.16161041 0.44116244
0.041168917 -0.16116002 0.43978563
0.043222211 -0.16093682 0.439015
0.045137629 -0.16025785 0.43696305
0.04722378 -0.16020417 0.43662736
0.049307846 -0.16014709 0.43628243
0.051387157 -0.16009295 0.4359068
0.053349521 -0.15972134 0.43467763
0.055567149 -0.16007105 0.43541145
0.057539932 -0.15971456 0.43421021
0.059508447 -0.15938495 0.43304431
0.061610568 -0.15940918 0.43286467
0.063348994 -0.15855616 0.43029001
0.066153377 -0.16031945 0.43476099
0.067498334 -0.15853208 0.42962727
0.070625797 -0.16094476 0.43587473
0.072829433 -0.16115542 0.43610051
0.075087324 -0.16145645 0.43660873
0.078020081 -0.16318183 0.44093564
0.081042714 -0.16498245 0.44541878
0.084435046 -0.16740763 0.45161855
0.086755857 -0.16768214 0.45194057
0.091678537 -0.17280427 0.46535599
0.0978681 -0.18000798 0.48433316
0.10224692 -0.18366456 0.49368036
0.10536554 -0.18489666 0.4965255
0.10748242 -0.18437064 0.49460325
0.10956174 -0.18383227 0.49263445
0.11167955 -0.18333691 0.49081129
0.1146567 -0.18428554 0.49279213
0.11714829 -0.1843885 0.49255231
0.12001148 -0.18507615 0.49381149
0.12161375 -0.18383892 0.48996386
0.12359436 -0.183202 0.48767811
0.12589501 -0.18306212 0.48672873
0.12810008 -0.18279046 0.48543018
0.1302854 -0.18249397 0.48402417
0.13280311 -0.1826715 0.48388636
0.13471656 -0.1820257 0.48156908
0.13689196 -0.18174957 0.48021653
0.13990717 -0.1825783 0.48178121
0.14241104 -0.18272251 0.48150358
0.1446553 -0.18251756 0.4803651
0.14570367 -0.18085405 0.4753615
0.14974304 -0.18289585 0.48009548
0.15100467 -0.18153311 0.47587389
0.15329845 -0.18143314 0.47496748
0.15641831 -0.1823007 0.47661731
0.15688212 -0.18009172 0.47022787
0.15908769 -0.17991871 0.46918806
0.16388512 -0.18263723 0.47566375
0.16586255 -0.18219613 0.47391859
0.16812199 -0.18205476 0.47298062
0.17097002 -0.18254457 0.47370693
0.17324737 -0.18241727 0.47283015
0.17609292 -0.18289854 0.47358796
0.17856221 -0.18297824 0.4732711
0.18183291 -0.18386337 0.47509319
0.18476495 -0.18438388 0.47601163
0.18717061 -0.18436834 0.4755705
0.18937086 -0.18414877 0.47466218
0.19179407 -0.18417609 0.47438994
0.19622929 -0.18608963 0.47901505
0.19836505 -0.18581201 0.47803965
0.20020747 -0.18526313 0.47641003
0.20253907 -0.1851829 0.47604567
0.20615028 -0.18625312 0.47866389
0.20833136 -0.18601316 0.47799134
0.20976156 -0.18512237 0.47567287
0.21435358 -0.18701613 0.48056993
0.21644522 -0.18670061 0.47985113
0.21824636 -0.18616582 0.47856858
0.2214009 -0.18675728 0.48026964
0.22413132 -0.18698503 0.48109838
0.22586077 -0.18640164 0.47985765
nan nan nan
nan nan nan
nan nan nan
nan nan nan
nan nan nan
nan nan nan
nan nan nan
nan nan nan
nan nan nan
nan nan nan
nan nan nan
nan nan nan
nan nan nan
nan nan nan
nan nan nan
nan nan nan
nan nan nan
nan nan nan
nan nan nan
nan nan nan
nan nan nan
nan nan nan
nan nan nan
nan nan nan
nan nan nan
nan nan nan
nan nan nan
nan nan nan
nan nan nan
nan nan nan
nan nan nan
nan nan nan
-0.20535953 -0.15692988 0.41073388
-0.20364676 -0.15722282 0.41103762
nan nan nan
-0.20049867 -0.15803368 0.41236475
-0.19851343 -0.15813406 0.41225964
-0.19580355 -0.15762737 0.41066584
-0.19364387 -0.15758574 0.41030043
-0.19228651 -0.15819296 0.41166288
-0.19083554 -0.15873799 0.41291583
-0.18916254 -0.15909891 0.41374248
-0.18708654 -0.15914105 0.41377845
-0.18575904 -0.1598193 0.41550666
-0.18504372 -0.16103765 0.41869199
-0.18320906 -0.16130394 0.41944063
-0.18198188 -0.16212335 0.42168126
-0.18016389 -0.16243748 0.42260814
-0.17819965 -0.16260383 0.42324272
-0.17662221 -0.16313905 0.42486176
-0.17465641 -0.16334741 0.4256449
-0.17266616 -0.1635032 0.42636877
-0.16951376 -0.16257277 0.42425799
-0.1675287 -0.16273287 0.42508298
-0.16639598 -0.16374698 0.42812628
-0.1641082 -0.16364752 0.42825952
-0.16328982 -0.16501196 0.43230471
-0.16126171 -0.1651869 0.43323728
-0.15913834 -0.16526538 0.43395647
-0.15702471 -0.16533884 0.43468669
-0.15492199 -0.16543992 0.43548962
-0.15341745 -0.16620599 0.43804541
-0.15097649 -0.16594799 0.43792793
-0.14948708 -0.16674371 0.44063237
-0.14689244 -0.16631065 0.4400757
-0.14459823 -0.1662256 0.4404377
-0.14436282 -0.16852486 0.44716522
-0.14337468 -0.17000295 0.45169708
-0.13966262 -0.1682642 0.44769585
-0.1379161 -0.16885911 0.44990954
-0.1374952 -0.17112301 0.45658055
-0.13599141 -0.17209202 0.45979306
-0.13364366 -0.17200735 0.46019346
-0.13126859 -0.17190379 0.46052697
-0.1303498 -0.17371604 0.46598324
-0.12811415 -0.17381202 0.46686861
-0.12538959 -0.17325169 0.46594736
-0.12363283 -0.1740163 0.46861666
-0.12150189 -0.17426653 0.46984613
-0.11966569 -0.17496407 0.47231135
-0.11742423 -0.17508495 0.47322267
-0.11515775 -0.17518848 0.47402918
-0.11356934 -0.17633261 0.47768226
-0.11055347 -0.17526188 0.47533557
-0.10832624 -0.17543815 0.47629336
-0.1063639 -0.17604402 0.4784627
-0.10378487 -0.17563348 0.47787023
-0.10260428 -0.17764108 0.48378608
-0.10027241 -0.17768636 0.48440668
-0.097443037 -0.17683101 0.48255372
-0.094989508 -0.17664827 0.48247403
-0.092621371 -0.17660233 0.48279488
-0.090416715 -0.17685854 0.48389867
-0.088694155 -0.17811175 0.48776159
-0.086676553 -0.17884099 0.49013406
-0.084475525 -0.17920521 0.49153662
-0.081209667 -0.17728217 0.48661807
-0.079547457 -0.1788325 0.49126086
-0.077221207 -0.17895554 0.4919259
-0.074962385 -0.17923044 0.49305353
-0.072669037 -0.17945428 0.49396482
-0.070805982 -0.18077464 0.49794173
-0.068245649 -0.18036117 0.49709973
-0.06576325 -0.18012987 0.49672621
-0.062970556 -0.17898168 0.49386674
-0.060575105 -0.17893301 0.49397844
-0.058864497 -0.18098465 0.4998911
-0.056430876 -0.18087572 0.49986762
-0.053492676 -0.17908418 0.4951303
-0.051663905 -0.18099508 0.50065833
-0.049139895 -0.18055411 0.49963775
-0.046569411 -0.1798705 0.49795693
-0.043925777 -0.17883144 0.49526149
-0.041589476 -0.17899452 0.4958621
-0.039332312 -0.17952044 0.49751326
-0.037118014 -0.18033861 0.49991444
-0.034844846 -0.18103001 0.50199431
-0.032515358 -0.18143505 0.5032357
-0.030057125 -0.1811101 0.50248134
-0.027675333 -0.18122932 0.5029428
-0.025256684 -0.18124039 0.50305885
-0.022832004 -0.18105665 0.50266308
-0.020499339 -0.18164511 0.50439507
-0.018054688 -0.18128216 0.5034399
-0.015621453 -0.18110764 0.50303686
-0.013190798 -0.18068136 0.50191802
-0.010921754 -0.18277052 0.50777096
-0.0084646149 -0.18200563 0.50569516
-0.0060050171 -0.18104801 0.50306702
-0.0035927603 -0.18036957 0.50121444
-0.0012037768 -0.1804852 0.50153571
0.001208151 -0.18114102 0.50335819
0.003636691 -0.18257505 0.50734305
0.0060609565 -0.18273455 0.50775337
0.0083855093 -0.18065481 0.50194192
0.010784491 -0.18045722 0.5014056
0.013147387 -0.1800705 0.50026619
0.015603158 -0.18087924 0.50244778
0.018015059 -0.18101545 0.50278986
0.020279597 -0.17968178 0.49900442
0.022096153 -0.17518981 0.48647866
0.024024772 -0.17236918 0.47853738
0.025803652 -0.16904213 0.46922106
0.027743794 -0.16723175 0.46407527
0.02955462 -0.16495256 0.45765784
0.031464621 -0.1634392 0.45331165
0.033297993 -0.16180609 0.44867662
0.035426252 -0.16171524 0.44830471
0.037099428 -0.15968885 0.44251436
0.039262515 -0.15986173 0.44286042
0.041108284 -0.15878969 0.43974406
0.043133993 -0.15849634 0.43873146
0.045201689 -0.15836304 0.43818778
0.046978232 -0.15726569 0.43497786
0.049200017 -0.15773323 0.43608266
0.051255807 -0.15762155 0.43554637
0.053175263 -0.15710165 0.43389371
0.055179026 -0.15685961 0.43300954
0.057188354 -0.15664943 0.43219975
0.05941033 -0.15701504 0.43297827
0.061279938 -0.15650541 0.43129042
0.063366421 -0.15651578 0.43106124
0.065228738 -0.15598848 0.42933798
0.068204053 -0.15810549 0.43489003
0.070391528 -0.1583059 0.43511257
0.072373338 -0.1580313 0.43405452
0.074960031 -0.15908536 0.43662998
0.077773266 -0.1605188 0.44024163
0.080506004 -0.16172767 0.44317734
0.084422626 -0.16520454 0.45234293
0.086811759 -0.1655779 0.45296144
0.090771042 -0.1688384 0.46148047
0.097604245 -0.17718579 0.48387566
0.10318818 -0.18291323 0.49903753
0.10745621 -0.18608147 0.50720602
0.10827729 -0.1833162 0.49915534
0.10996364 -0.18206097 0.49525583
0.11252166 -0.18231441 0.49540168
0.11517541 -0.18266642 0.49585834
0.11824288 -0.18366231 0.49798095
0.12074178 -0.18376133 0.49771321
0.12321171 -0.18380436 0.49724844
0.12478936 -0.18254817 0.49328423
0.12751165 -0.18297452 0.49382448
0.12997794 -0.18303117 0.49339342
0.13201739 -0.18248881 0.49128813
0.13443321 -0.18248278 0.49067298
0.13670881 -0.18228941 0.48953816
0.13867295 -0.18169408 0.48731005
0.14192528 -0.18277755 0.48956621
0.14390156 -0.1822083 0.48739359
0.14735094 -0.18349174 0.49015757
0.14934549 -0.18295072 0.4880285
0.15105386 -0.18208487 0.48508203
0.15352026 -0.18214463 0.48458743
0.15712802 -0.18353468 0.48762664
0.1583377 -0.18210648 0.48320526
0.16041733 -0.18174049 0.48154813
0.16312246 -0.18206602 0.48176688
0.16582435 -0.18237869 0.48197606
0.16666387 -0.18066168 0.47682568
0.16994642 -0.18161973 0.4787378
0.17195481 -0.18119015 0.47701684
0.17408885 -0.18090139 0.47571158
0.17656526 -0.18098556 0.47537056
0.18097523 -0.18300362 0.48016211
0.18323195 -0.18284965 0.47923225
0.18549576 -0.182687 0.47832346
0.18822962 -0.18298158 0.47865438
0.19022581 -0.18257219 0.47718674
0.19350986 -0.18337268 0.47892347
0.19675408 -0.18414272 0.48057702
0.19920993 -0.18415932 0.48032269
0.20197661 -0.18445306 0.48081711
0.205256 -0.18519376 0.48257986
0.20745939 -0.18496667 0.48181978
0.20984279 -0.18489549 0.48151001
0.21271758 -0.18526024 0.4823963
0.21497837 -0.1850937 0.48194337
0.21698305 -0.18472052 0.48096943
0.22033352 -0.18547627 0.48302436
0.22317465 -0.18578079 0.48394981
0.22514713 -0.18538082 0.4831199
0.22694443 -0.18483867 0.48190203
nan nan nan
nan nan nan
nan nan nan
nan nan nan
nan nan nan
nan nan nan
nan nan nan
nan nan nan
nan nan nan
nan nan nan
nan nan nan
nan nan nan
nan nan nan
nan nan nan
nan nan nan
nan nan nan
nan nan nan
nan nan nan
nan nan nan
nan nan nan
nan nan nan
nan nan nan
nan nan nan
nan nan nan
nan nan nan
nan nan nan
nan nan nan
nan nan nan
nan nan nan
nan nan nan
nan nan nan
nan nan nan
-0.208249 -0.1570186 0.41615328
-0.20647618 -0.15728308 0.41641158
-0.20344639 -0.15658873 0.41414967
-0.20162766 -0.15680666 0.41439745
-0.19952995 -0.15682541 0.41411987
-0.19666119 -0.15623279 0.41228423
-0.19676556 -0.15800418 0.41674033
-0.19544664 -0.15866071 0.41829276
-0.19212946 -0.15769395 0.41562036
-0.19041692 -0.15802786 0.41641596
-0.18764569 -0.15749648 0.41498536
-0.18704875 -0.15877755 0.41836932
-0.18539624 -0.15919894 0.41954195
-0.18465187 -0.16042618 0.42283878
-0.1822284 -0.16019687 0.42238989
-0.18022656 -0.16033018 0.42293584
-0.17855611 -0.16077343 0.42429957
-0.17681085 -0.1611516 0.42557076
-0.17504483 -0.16152935 0.42685637
-0.17200285 -0.1607179 0.42507645
-0.17048 -0.16131952 0.42701793
-0.16838554 -0.16139857 0.42763117
-0.16638759 -0.16156951 0.42852721
-0.16484319 -0.16220273 0.43065098
-0.16275468 -0.16229227 0.43135735
-0.16177091 -0.16351327 0.43512917
-0.15996984 -0.16391301 0.43674517
-0.15755621 -0.16370101 0.43673131
-0.1560102 -0.1643959 0.4391633
-0.15420215 -0.16482896 0.44089931
-0.15341285 -0.16639429 0.44567066
-0.15151796 -0.16677216 0.44729358
-0.14950854 -0.16703385 0.44863275
-0.14740485 -0.16719566 0.44970503
-0.14547339 -0.16755994 0.4513236
-0.14607184 -0.1709128 0.46099028
-0.14390789 -0.17106977 0.46203408
-0.14077568 -0.17008318 0.46002814
-0.13983226 -0.17173237 0.46513799
-0.13756311 -0.17178091 0.46590307
-0.13585055 -0.1725575 0.46864569
-0.13380761 -0.17289747 0.47021782
-0.13068385 -0.17186466 0.46802685
-0.12925628 -0.17304914 0.47188601
-0.12619944 -0.17205006 0.46974847
-0.12471509 -0.17320307 0.47351474
-0.12254211 -0.17342541 0.47472566
-0.12089687 -0.17443372 0.47803268
-0.11792298 -0.17351049 0.47609004
-0.11643795 -0.17478488 0.48016259
-0.11448155 -0.17540571 0.48238578
-0.11200246 -0.17521828 0.48241541
-0.10967944 -0.17527221 0.48310918
-0.10750136 -0.17558128 0.48444688
-0.10551236 -0.17620324 0.48667881
-0.10316658 -0.17621671 0.48721582
-0.10108022 -0.1767287 0.48908791
-0.098736018 -0.1767868 0.48973387
-0.096183687 -0.17648205 0.48931313
-0.093632475 -0.176147 0.4888353
-0.091836832 -0.17726909 0.49235824
-0.089891694 -0.17813773 0.49519455
-0.087662078 -0.1784911 0.4965722
-0.085055165 -0.17805728 0.49577245
-0.082606241 -0.17795494 0.49584901
-0.080444992 -0.17844756 0.49755144
-0.078130186 -0.17863928 0.49847808
-0.075286634 -0.17761216 0.49592391
-0.073752776 -0.17969127 0.50209063
-0.071291633 -0.17959188 0.50211185
-0.068856418 -0.17955194 0.50228256
-0.066951066 -0.18093988 0.50644976
-0.064335138 -0.18042204 0.50529718
-0.06161508 -0.17957661 0.50317889
-0.059405074 -0.18020801 0.50519836
-0.057084091 -0.1805243 0.5063656
-0.054233223 -0.17913498 0.50268453
-0.052014682 -0.1798006 0.5047527
-0.04931853 -0.17878172 0.50212115
-0.046822682 -0.17843811 0.50133854
-0.044536147 -0.17889638 0.50279266
-0.042188354 -0.17919819 0.50385368
-0.039818842 -0.17938143 0.50451946
-0.037356503 -0.17912468 0.50397736
-0.034962509 -0.17919922 0.50430471
-0.03286257 -0.18088458 0.50921291
-0.030236829 -0.17982782 0.50633961
-0.027859783 -0.18006893 0.50714999
-0.025325058 -0.17923985 0.50494593
-0.022979489 -0.17973243 0.50640225
-0.020601925 -0.18018456 0.50777489
-0.018254071 -0.18088876 0.50984198
-0.01572952 -0.17980582 0.50682551
-0.013339302 -0.18034406 0.50840855
-0.010951729 -0.18089347 0.51002342
-0.0085033625 -0.18046574 0.50886691
-0.0060614636 -0.18037795 0.50865233
-0.0036389551 -0.18031763 0.50849873
-0.0012184368 -0.18031217 0.5084998
0.0012183955 -0.18030608 0.50848258
0.0036389201 -0.1803159 0.50849384
0.006063669 -0.18044358 0.5088374
0.0084772082 -0.17991067 0.50730175
0.010847026 -0.17914771 0.50514746
0.013258941 -0.17924124 0.50536209
0.015801074 -0.18060724 0.50914752
0.018113652 -0.17948088 0.50593644
0.020386919 -0.17828785 0.50247568
0.022093162 -0.172892 0.48721814
0.024034912 -0.17009321 0.47922224
0.02573419 -0.16629998 0.46847165
0.027716391 -0.1648079 0.46413291
0.029336398 -0.16152728 0.4548175
0.031449988 -0.16122721 0.45386675
0.033323407 -0.15982677 0.44977838
0.035271492 -0.15891774 0.44710132
0.036989249 -0.15713251 0.44194686
0.038998637 -0.15666743 0.440467
0.040978041 -0.15617615 0.43892607
0.043088604 -0.15625867 0.43901247
0.04478151 -0.15483871 0.43485051
0.0467638 -0.1544999 0.43372682
0.048833083 -0.15447806 0.43343955
0.050924636 -0.15451142 0.43333262
0.053145211 -0.15491715 0.43426946
0.055086397 -0.15450753 0.43290648
0.057095952 -0.15431148 0.43212855
0.059112292 -0.15418269 0.43153945
0.061122738 -0.15401128 0.43081743
0.063121684 -0.15383625 0.43003234
0.065176345 -0.15378973 0.4296321
0.067299455 -0.15393396 0.42976454
0.069997288 -0.1553127 0.43332669
0.072056077 -0.15523377 0.43280518
0.074541211 -0.15609521 0.43486419
0.077922121 -0.15869047 0.44175717
0.080485709 -0.15955502 0.44383955
0.083300203 -0.16083017 0.44703019
0.086860336 -0.1634578 0.45391482
0.090186313 -0.16553855 0.45931077
nan nan nan
0.10314193 -0.18039106 0.49960926
0.10798911 -0.18453769 0.51061684
0.10956635 -0.18302388 0.50590867
0.1116344 -0.18238905 0.50366563
0.11338406 -0.18126181 0.50000513
0.11607403 -0.18166301 0.50060874
0.11856934 -0.18173975 0.50025445
0.12104525 -0.1817676 0.49979433
0.12347206 -0.18176258 0.4991813
0.12614071 -0.18206614 0.49946052
0.1291824 -0.18292601 0.50119954
0.13071033 -0.18161052 0.49700868
0.1338418 -0.1825693 0.4989804
0.13547437 -0.1814469 0.49529338
0.13807787 -0.18166302 0.49526304
0.14062977 -0.18180431 0.49501076
0.14280303 -0.18147574 0.49343446
0.14538868 -0.18165679 0.49325627
0.14773415 -0.18153617 0.49225861
0.15007317 -0.18139453 0.49124986
0.15223333 -0.18106024 0.48964265
0.1557768 -0.18235816 0.49249071
0.15818168 -0.1823193 0.49167871
0.16078895 -0.1824774 0.49147066
0.16315272 -0.18237373 0.49049529
0.16390187 -0.18049577 0.4847832
0.16690718 -0.18113752 0.48585948
0.17009817 -0.18194024 0.48732862
0.1724966 -0.18188393 0.48655498
0.17452285 -0.18144107 0.48475972
0.17755257 -0.18205413 0.48580122
0.18009585 -0.18215629 0.48545977
0.18229763 -0.18191266 0.48424119
0.18413505 -0.18129732 0.4820796
0.18799572 -0.18269366 0.48524743
0.19026768 -0.18249342 0.48427644
0.19190647 -0.18172669 0.48178703
0.19469078 -0.18206227 0.48222035
0.19733334 -0.18222123 0.48228985
0.20007092 -0.18248914 0.4826462
0.20331073 -0.18319523 0.48423159
0.20622912 -0.18359299 0.48501658
0.20838894 -0.18333662 0.48411769
0.21081898 -0.18329862 0.48385718
0.21318842 -0.18321574 0.48352298
0.21545805 -0.18305564 0.48302981
0.21787806 -0.1830162 0.48291713
0.22090705 -0.18348789 0.48419839
0.22356424 -0.18364759 0.4847194
0.22603102 -0.18363833 0.48484042
0.22881837 -0.18388954 0.48571292
0.23174083 -0.1842484 0.48687139
0.2345906 -0.18454064 0.48798269
0.23731846 -0.18473673 0.48882455
nan nan nan
nan nan nan
nan nan nan
nan nan nan
nan nan nan
nan nan nan
nan nan nan
nan nan nan
nan nan nan
nan nan nan
nan nan nan
nan nan nan
nan nan nan
nan nan nan
nan nan nan
nan nan nan
nan nan nan
nan nan nan
nan nan nan
nan nan nan
nan nan nan
nan nan nan
nan nan nan
nan nan nan
nan nan nan
nan nan nan
nan nan nan
nan nan nan
nan nan nan
-0.21280059 -0.15830493 0.42491329
-0.20750637 -0.15595272 0.41819727
-0.20542036 -0.15599118 0.4179149
-0.20295127 -0.15572135 0.41688898
-0.20078519 -0.15568484 0.41650456
-0.19929475 -0.15618949 0.41762319
-0.19771264 -0.15662195 0.41860315
-0.19608982 -0.15703304 0.41956565
-0.19441988 -0.1574323 0.42049643
-0.19215776 -0.15733103 0.42019987
-0.18941669 -0.1568343 0.41887209
-0.18711743 -0.15670013 0.41856694
-0.18660185 -0.15809323 0.42235646
-0.18553524 -0.15902378 0.42499101
-0.18277508 -0.15851527 0.42377967
-0.18064363 -0.15853737 0.4240804
-0.17867863 -0.15872958 0.42483595
-0.17699401 -0.15915753 0.42630255
-0.17542721 -0.15971285 0.42812663
-0.17325893 -0.15972237 0.42851326
-0.170995 -0.15963805 0.42868724
-0.16882698 -0.1596521 0.42917949
-0.16693841 -0.15993045 0.43040764
-0.1657882 -0.16093014 0.43358028
-0.16395502 -0.16128176 0.43505076
-0.1633703 -0.16291544 0.43998536
-0.16193694 -0.16370341 0.44268447
-0.1593242 -0.16331831 0.44223818
-0.1583689 -0.16464368 0.44642648
-0.15743417 -0.16602793 0.45081037
-0.15568745 -0.16658248 0.45294833
-0.15390517 -0.16713029 0.45505637
-0.15213199 -0.16768777 0.45723686
-0.1503406 -0.16824089 0.45939401
-0.14878307 -0.16907597 0.46232614
-0.14777191 -0.17056938 0.46709475
-0.14567971 -0.17084229 0.46851218
-0.14389753 -0.17149301 0.47096917
-0.14198531 -0.1720265 0.47309282
-0.14051411 -0.17310105 0.47669441
-0.13717115 -0.1718865 0.47399151
-0.13587528 -0.17322291 0.47835174
-0.13232248 -0.17167364 0.47468239
-0.13153285 -0.17372262 0.4809925
-0.12850146 -0.17283167 0.47916695
-0.12588988 -0.17249858 0.47882316
-0.12342323 -0.17233853 0.47898632
-0.12120445 -0.17252511 0.48009703
-0.11884615 -0.17253254 0.48066521
-0.11693028 -0.17317888 0.48304415
-0.1150667 -0.17393091 0.48570633
-0.11401967 -0.17596595 0.49189851
-0.11167678 -0.17605419 0.49270031
-0.10881727 -0.17531401 0.49114913
-0.10637164 -0.17523858 0.49141228
-0.10504942 -0.17703593 0.49697781
-0.10248587 -0.17679305 0.49674174
-0.10023681 -0.17707682 0.49803162
-0.098116323 -0.17762382 0.50000131
-0.094895251 -0.17613839 0.49627718
-0.092485145 -0.17610542 0.49659544
-0.090173848 -0.17627859 0.49750865
-0.088497303 -0.17775254 0.5020504
-0.085449062 -0.17647585 0.49882361
-0.082838334 -0.17603758 0.49797636
-0.080492489 -0.17616917 0.49869424
-0.078846738 -0.17788734 0.50389051
-0.076494038 -0.17805158 0.50473523
-0.074242339 -0.17844617 0.50615418
-0.071858481 -0.178579 0.50683153
-0.069542073 -0.17889351 0.50800854
-0.067387268 -0.17966053 0.51047224
-0.064865492 -0.17945233 0.51019657
-0.062245123 -0.17896095 0.50905073
-0.05957602 -0.17828222 0.50735384
-0.057331126 -0.1788678 0.50925475
-0.054949079 -0.17904048 0.51001167
-0.052466385 -0.17890257 0.50982016
-0.049940061 -0.17865276 0.50929266
-0.047461726 -0.17847724 0.50902367
-0.044952616 -0.17817733 0.50833571
-0.042399231 -0.17765574 0.50701457
-0.040471409 -0.17983225 0.51342589
-0.038023978 -0.17984809 0.51360667
-0.035409056 -0.17910086 0.5115912
-0.033009134 -0.17930152 0.51233035
-0.030871073 -0.18108682 0.51753461
-0.028351923 -0.18073305 0.51665735
-0.025826152 -0.1803824 0.51577181
-0.023204189 -0.1791032 0.51218277
-0.02082406 -0.17958882 0.51367122
-0.01818941 -0.17787762 0.50887549
-0.015804451 -0.17828675 0.51008123
-0.013390958 -0.17866184 0.51122051
-0.011012658 -0.17950799 0.51369148
-0.0086021814 -0.18016236 0.51561403
-0.0060931901 -0.17893779 0.51214254
-0.0036550201 -0.17873214 0.51158702
-0.0012259472 -0.17903799 0.51246244
0.0012328543 -0.18004672 0.51534975
0.0036986936 -0.18086779 0.51769996
0.0062111849 -0.18190861 0.52064538
0.0086687831 -0.18155725 0.51960617
0.011104879 -0.18099445 0.5180099
0.013499762 -0.17987475 0.51473874
0.016060932 -0.18116328 0.51835901
0.018314468 -0.179084 0.51237416
0.02043538 -0.17622051 0.50409991
0.022229251 -0.1715463 0.49067894
0.023941698 -0.16720498 0.47815299
0.02567385 -0.16372763 0.46813098
0.027479092 -0.16115995 0.46067011
0.029448364 -0.15993024 0.45706406
0.031375561 -0.15865518 0.45332986
0.033373885 -0.15789372 0.45099333
0.034949351 -0.15533045 0.44355473
0.036793303 -0.15418351 0.44016328
0.038841821 -0.15396987 0.43940878
0.040442534 -0.15209265 0.43390849
0.042608183 -0.15243225 0.43469381
0.044430301 -0.15155435 0.43201977
0.04647189 -0.1514686 0.43160486
0.048436996 -0.1511503 0.43051371
0.050471015 -0.15106313 0.43008134
0.052777279 -0.15176456 0.43186525
0.054898571 -0.15190011 0.43203768
0.056723733 -0.15127262 0.43004048
0.058836512 -0.15139212 0.43013939
0.060805384 -0.15114482 0.42919636
0.062887616 -0.15118536 0.42905697
0.065116055 -0.15160951 0.42996553
0.067325667 -0.15191936 0.43057439
0.069553606 -0.15224998 0.4312267
0.072408542 -0.15392347 0.4356645
0.074506089 -0.1539079 0.43530399
0.076810382 -0.15430772 0.43611753
0.079973318 -0.15639259 0.44167379
0.082557268 -0.15725262 0.44372341
0.086504333 -0.1606126 0.45282918
0.089289002 -0.16167414 0.45544443
0.094710782 -0.16734308 0.47100759
nan nan nan
0.10903334 -0.18380295 0.51636058
0.11078866 -0.18259203 0.51243353
0.11209719 -0.18066995 0.50654984
0.11404014 -0.17985693 0.50378305
0.11646432 -0.1798113 0.50310451
0.11958844 -0.18080914 0.50535601
0.12217121 -0.18100558 0.50533384
0.12440733 -0.1806497 0.5037834
0.12654093 -0.18020165 0.50193173
0.12957473 -0.18098795 0.5035302
0.13232285 -0.18139245 0.50401568
0.13363098 -0.17980504 0.49901697
0.13585073 -0.17951764 0.49755269
0.1382508 -0.17943615 0.49670658
0.14174072 -0.1807681 0.49975184
0.14401923 -0.18055218 0.49846753
0.14600192 -0.17996207 0.49616584
0.14925237 -0.18092772 0.49815199
0.15185784 -0.18109232 0.49792823
0.15388578 -0.1805734 0.49579269
0.15633394 -0.18053886 0.49503511
0.15851285 -0.18023403 0.49347481
0.16172731 -0.18108073 0.49511111
0.16478336 -0.18172623 0.49617445
0.16531403 -0.179626 0.48974639
0.16821209 -0.18008608 0.49033386
0.1712617 -0.18072674 0.49139181
0.17328876 -0.18024984 0.48945564
0.1753044 -0.17980713 0.48761508
0.18012537 -0.18221255 0.49347392
0.18261234 -0.1822049 0.49281737
0.18496865 -0.18208328 0.4918693
0.18760957 -0.18222161 0.49169752
0.19041917 -0.18254822 0.49198577
0.19246922 -0.18212709 0.49034998
0.19495343 -0.1821347 0.489869
0.19795719 -0.18261671 0.49070767
0.20082223 -0.18295501 0.49120337
0.20508419 -0.18455328 0.4950594
0.20559455 -0.18275452 0.4899289
0.20677894 -0.1816161 0.48655576
0.20930837 -0.18164775 0.48641002
0.21105626 -0.18103203 0.48454794
0.21392891 -0.181376 0.48530009
0.21641272 -0.18139192 0.48521957
0.21973677 -0.18209466 0.48703864
0.22212334 -0.18201798 0.48683599
0.22467621 -0.1820816 0.48705488
0.22692053 -0.18188591 0.48662654
0.22951502 -0.18197472 0.48702347
0.23238234 -0.18227774 0.48805866
0.23515327 -0.18248746 0.48889241
0.23852083 -0.18315181 0.49101135
0.24162212 -0.18363139 0.49263856
nan nan nan
nan nan nan
nan nan nan
nan nan nan
nan nan nan
nan nan nan
nan nan nan
nan nan nan
nan nan nan
nan nan nan
nan nan nan
nan nan nan
nan nan nan
nan nan nan
nan nan nan
nan nan nan
nan nan nan
nan nan nan
nan nan nan
nan nan nan
nan nan nan
nan nan nan
nan nan nan
nan nan nan
nan nan nan
nan nan nan
nan nan nan
-0.22276857 -0.16181318 0.44047999
-0.21688184 -0.15914309 0.43275291
-0.21487525 -0.15927784 0.43274698
-0.213194 -0.15967424 0.43345252
-0.20903985 -0.15820724 0.4291763
-0.20564215 -0.15727636 0.42640147
-0.20417933 -0.15783384 0.42770484
-0.20228422 -0.15807025 0.42816851
-0.19995031 -0.15795147 0.42775294
-0.19772391 -0.1579183 0.42761078
-0.19581431 -0.15814604 0.42819029
-0.19307943 -0.15769285 0.42702317
-0.19058076 -0.15744346 0.42640752
-0.18839608 -0.15742728 0.42650446
-0.18666188 -0.15779665 0.42770171
-0.18400061 -0.15740243 0.42682868
-0.18115078 -0.15682843 0.42552176
-0.17928642 -0.15708251 0.42652661
-0.17841464 -0.15824564 0.43001696
-0.1766623 -0.15864135 0.43146542
-0.17510608 -0.15922023 0.4334546
-0.1729576 -0.1592638 0.43402851
-0.17204981 -0.16047668 0.43779191
-0.17104715 -0.16164207 0.44147357
-0.16955405 -0.16235071 0.44395483
-0.16790648 -0.16292556 0.44610056
-0.16581064 -0.16308814 0.44711962
-0.16364826 -0.16317138 0.44796368
-0.16395719 -0.16576941 0.45572135
-0.16187187 -0.16600038 0.45696631
-0.16162446 -0.1681325 0.46348071
-0.16073354 -0.16963035 0.46830434
-0.15774277 -0.16893968 0.46708912
-0.15559831 -0.1691646 0.46838725
-0.15330137 -0.16920955 0.46917194
-0.15235519 -0.17077087 0.47421178
-0.14968577 -0.17043492 0.47392744
-0.14863776 -0.17194682 0.47883067
-0.14610991 -0.17177044 0.47905046
-0.14371751 -0.17174695 0.47965074
-0.14178909 -0.1723056 0.48187876
-0.13988447 -0.17287594 0.48415667
-0.13739756 -0.1727706 0.48449865
-0.13447107 -0.17208217 0.48323163
-0.13183008 -0.17175706 0.48293549
-0.1292621 -0.17150007 0.48284191
-0.1269694 -0.17160556 0.48376822
-0.12491041 -0.17205311 0.4855991
-0.12364835 -0.17359738 0.49056157
-0.1214937 -0.17394798 0.49215746
-0.11938262 -0.17437634 0.49395975
-0.11702258 -0.17446764 0.494746
-0.11428861 -0.17397647 0.49390933
-0.11184045 -0.17392497 0.49425626
-0.10931755 -0.17373537 0.49425647
-0.10787011 -0.17530128 0.49919176
-0.10518889 -0.17487097 0.498476
-0.10269888 -0.17473426 0.49854863
-0.10078643 -0.17560871 0.50152224
-0.098054685 -0.17508003 0.50044256
-0.095403433 -0.17465462 0.49968618
-0.093443304 -0.17552167 0.50258148
-0.090958208 -0.17542176 0.5026933
-0.088735409 -0.17578597 0.50414991
-0.086302817 -0.17579347 0.5045535
-0.084265046 -0.17662804 0.50729948
-0.081942998 -0.17689784 0.50842547
-0.079402819 -0.17669784 0.50818467
-0.076781169 -0.17628042 0.50734848
-0.074388608 -0.17639543 0.50799626
-0.072161995 -0.17692402 0.50981963
-0.069881156 -0.17735092 0.5113349
-0.067670546 -0.17794847 0.51332706
-0.065153204 -0.1777816 0.51316279
-0.062619045 -0.17757066 0.51280594
-0.060086388 -0.17734559 0.51239091
-0.058000617 -0.17852661 0.51603955
-0.055099115 -0.17713518 0.51223558
-0.052671149 -0.17720591 0.51264149
-0.050622534 -0.17860366 0.51693654
-0.047892816 -0.17763518 0.51430184
-0.045639858 -0.17842405 0.51675504
-0.043125413 -0.1782205 0.51633441
-0.040537201 -0.17772336 0.51509428
-0.038294695 -0.17871416 0.51810169
-0.035860404 -0.17886572 0.51870888
-0.033595841 -0.17996566 0.52201861
-0.03102175 -0.17954552 0.52090263
-0.02851207 -0.17933166 0.52041674
-0.025906602 -0.17843424 0.51788104
-0.023384288 -0.17808805 0.51699322
-0.020918565 -0.17799979 0.51683718
-0.018608429 -0.17956711 0.52144015
-0.016038805 -0.17851959 0.51848197
-0.013507019 -0.1775898 0.51584816
-0.01120879 -0.18027048 0.52368551
-0.0087053878 -0.17989448 0.5226438
-0.0062070284 -0.17986888 0.52255422
-0.0037066888 -0.17886031 0.51965761
-0.0012287091 -0.17949252 0.52149445
0.0012501859 -0.18014503 0.52343929
0.0037255012 -0.17975122 0.522295
0.0062205847 -0.17975636 0.52227622
0.008746691 -0.180748 0.52512354
0.01129416 -0.18136993 0.52689642
0.013781359 -0.18117984 0.52632558
0.016191721 -0.18020473 0.52342528
0.018554609 -0.17885232 0.51946193
0.020443037 -0.17393713 0.5051046
0.022214185 -0.16914517 0.4911398
0.023959758 -0.1649942 0.47897848
0.025837561 -0.16247939 0.47160023
0.027722357 -0.16041943 0.4655008
0.02936976 -0.15737702 0.45658237
0.031191198 -0.15554732 0.45118499
0.03314098 -0.1546192 0.44837537
0.034749482 -0.15232022 0.44155139
0.036728691 -0.15180147 0.4399322
0.038680933 -0.15123181 0.43815205
0.040583041 -0.15053312 0.43597096
0.04253475 -0.15007624 0.43450537
0.044406231 -0.14939064 0.43235064
0.046490103 -0.14944752 0.43234533
0.048326466 -0.14873657 0.43010554
0.050367426 -0.14868654 0.42977783
0.052559879 -0.14906901 0.43068579
0.05452808 -0.14880952 0.42972484
0.056480583 -0.14856334 0.42878908
0.058617909 -0.14876705 0.42915186
0.060667761 -0.14874154 0.42883906
0.062735915 -0.14876015 0.42863947
0.065040022 -0.14935063 0.43007255
0.06731575 -0.14980958 0.4311249
0.069513656 -0.15008631 0.43159688
0.07169728 -0.15033254 0.43202063
0.074452676 -0.15170036 0.43563586
0.076628089 -0.15184294 0.43572944
0.079689018 -0.15371279 0.44076094
0.08214879 -0.15432827 0.44219005
0.085999548 -0.15748565 0.45086452
0.089203 -0.15930392 0.45569339
0.094583176 -0.16486932 0.47117928
nan nan nan
0.10955838 -0.18218599 0.51973826
0.1124272 -0.18273719 0.52082676
0.11399901 -0.1812458 0.51603049
0.11591925 -0.18031694 0.51289135
0.11824411 -0.1800597 0.51158369
0.12130298 -0.1809161 0.51348644
0.12387001 -0.18101063 0.51315868
0.12635805 -0.18099567 0.51256841
0.12839216 -0.18033618 0.51008987
0.13100933 -0.18051155 0.50998849
0.13276821 -0.17951331 0.5065431
0.13604972 -0.18057817 0.50893307
0.13790484 -0.17972288 0.5059104
0.1410356 -0.18056908 0.50761259
0.14253749 -0.17929849 0.50339615
0.14468165 -0.17890272 0.50157768
0.14709789 -0.17883413 0.50072545
0.15034212 -0.17975725 0.50262976
0.15232341 -0.17916432 0.50027668
0.15530185 -0.1797439 0.50118065
0.15739083 -0.17929149 0.49920639
0.16033737 -0.17981429 0.49994707
0.16333805 -0.18038218 0.50082183
0.16624808 -0.18083334 0.50136822
0.16795298 -0.17997873 0.49827865
0.16996393 -0.17948909 0.49620464
0.17251861 -0.17956156 0.49571592
0.17553225 -0.18010145 0.49651474
0.17865787 -0.18075532 0.49760577
0.18100978 -0.18060072 0.49651563
0.18319291 -0.18028213 0.49502259
0.18732399 -0.18189479 0.4987632
0.19040138 -0.18241914 0.49960536
0.19190972 -0.18147592 0.49641174
0.19384374 -0.18093452 0.49438542
0.19642988 -0.18102059 0.49405712
0.20076641 -0.18267545 0.49809876
0.20350546 -0.18286525 0.49814001
0.20593341 -0.18276851 0.49744684
0.20845723 -0.18278439 0.49707696
0.20987757 -0.18182008 0.49411955
0.21237411 -0.18180983 0.49377328
0.21372013 -0.18081623 0.49085099
0.21675855 -0.18126978 0.49185723
0.21870162 -0.18081318 0.49045745
0.22120538 -0.18079886 0.49035132
0.22306576 -0.18028627 0.48889372
0.22596017 -0.18061535 0.48980024
0.22808889 -0.18032148 0.48904714
0.23031668 -0.18011411 0.48859319
0.23339599 -0.18057203 0.4900094
0.23611213 -0.1807304 0.4906615
0.23911908 -0.1811199 0.49200812
0.24357583 -0.18257526 0.4963204
nan nan nan
nan nan nan
nan nan nan
nan nan nan
nan nan nan
nan nan nan
nan nan nan
nan nan nan
nan nan nan
nan nan nan
nan nan nan
nan nan nan
nan nan nan
nan nan nan
nan nan nan
nan nan nan
nan nan nan
nan nan nan
nan nan nan
nan nan nan
nan nan nan
nan nan nan
nan nan nan
nan nan nan
nan nan nan
nan nan nan
-0.22886774 -0.16231972 0.4481664
-0.22729269 -0.16281317 0.44906411
-0.22428939 -0.16229801 0.44721437
-0.22150721 -0.16193272 0.44581023
-0.21937449 -0.16203889 0.44578236
-0.21266556 -0.15873148 0.43641412
-0.21142645 -0.15946835 0.43822935
-0.20993401 -0.16002873 0.43961734
-0.20778608 -0.16012514 0.43973079
-0.20423087 -0.15908901 0.43683615
-0.20389351 -0.16059464 0.44092089
-0.19995302 -0.15925133 0.4372842
-0.19666781 -0.15841192 0.43503025
-0.19547509 -0.15924919 0.43743834
-0.19350778 -0.15946902 0.43825087
-0.19006771 -0.15847388 0.43570757
-0.18741162 -0.1580938 0.43495223
-0.1856717 -0.15850843 0.43638268
-0.18454868 -0.15945962 0.43934977
-0.18315755 -0.16020705 0.4417854
-0.18342629 -0.16243744 0.44837534
-0.18155803 -0.16281816 0.44985038
-0.17981169 -0.1632987 0.45170489
-0.17831868 -0.1640362 0.45427346
-0.17695381 -0.1649085 0.45724776
-0.17475809 -0.16503178 0.45814788
-0.17227943 -0.16486923 0.45829767
-0.16992998 -0.16482499 0.45880309
-0.16818318 -0.16538592 0.46101028
-0.16603169 -0.16555724 0.46214634
-0.16578393 -0.16765727 0.46869102
-0.163881 -0.16811846 0.4706322
-0.16244201 -0.16907527 0.47402728
-0.15964134 -0.16862117 0.47343639
-0.15971832 -0.17123882 0.48152444
-0.15738301 -0.17132649 0.4824636
-0.1545452 -0.17084402 0.48182508
-0.15264413 -0.17139764 0.48409247
-0.15029679 -0.17145938 0.48495656
-0.14766982 -0.17120098 0.48496053
-0.14471421 -0.17056301 0.48382309
-0.1428521 -0.17119397 0.48626858
-0.14017084 -0.17085104 0.48599508
-0.13757294 -0.17059958 0.48596311
-0.13589717 -0.17151928 0.48920691
-0.13332795 -0.1713073 0.48925573
-0.13136818 -0.17186353 0.49149987
-0.12855828 -0.1713457 0.49059302
-0.1267105 -0.17209786 0.49337018
-0.12453861 -0.1724305 0.49494848
-0.12175687 -0.17193158 0.49405947
-0.11948936 -0.17213623 0.49523836
-0.11777482 -0.17317885 0.49876827
-0.11555272 -0.17348619 0.50021577
-0.11380138 -0.1745287 0.50377071
-0.11130489 -0.17443974 0.50401461
-0.10897862 -0.17462879 0.50509351
-0.10675166 -0.175006 0.50665343
-0.10430562 -0.17503262 0.50718254
-0.10160042 -0.17459765 0.50642139
-0.098375149 -0.17321289 0.50283563
-0.095654711 -0.17269847 0.5017553
-0.094192155 -0.17446993 0.50735092
-0.091290385 -0.17361549 0.50526476
-0.088970043 -0.17384931 0.50632763
-0.087030478 -0.17486046 0.50964046
-0.084885053 -0.17546922 0.51176709
-0.082218252 -0.17503886 0.51086342
-0.080303781 -0.17621519 0.51468259
-0.077189401 -0.17476626 0.51076818
-0.074752219 -0.17480467 0.51119798
-0.072329476 -0.17487948 0.51171768
-0.070173778 -0.17562672 0.51418972
-0.068224363 -0.1769622 0.51837039
-0.065685749 -0.17681129 0.51819879
-0.063339613 -0.17718564 0.51955009
-0.060562786 -0.1763352 0.5172925
-0.058315892 -0.17701955 0.51953697
-0.05576941 -0.1767966 0.519135
-0.053468015 -0.17738283 0.52107686
-0.050742671 -0.17654954 0.5188148
-0.048349611 -0.17684452 0.51986766
-0.04579629 -0.17655167 0.51917577
-0.043277442 -0.17641559 0.51897693
-0.040769879 -0.17625597 0.51865923
-0.038717687 -0.17816915 0.52442557
-0.03609205 -0.17752293 0.52264261
-0.033617858 -0.17765096 0.52318847
-0.031267658 -0.17842753 0.52557826
-0.028493749 -0.17679572 0.52090603
-0.026092362 -0.17728648 0.52242029
-0.023548599 -0.176791 0.52107787
-0.021177957 -0.17779005 0.52409106
-0.018696509 -0.1778197 0.52426296
-0.016189156 -0.17775965 0.52417046
-0.01360606 -0.17647614 0.5204528
-0.011169971 -0.17723694 0.52269733
-0.0087312004 -0.1780082 0.52502263
-0.0062232474 -0.17790371 0.52474827
-0.0037346345 -0.17777535 0.52440351
-0.0012440277 -0.17927633 0.52883112
0.0012556812 -0.17851035 0.52657157
0.0037885932 -0.17953154 0.52958393
0.0062639466 -0.17858189 0.52674872
0.0088262167 -0.17992824 0.53073615
0.011292105 -0.17888804 0.52763379
