# .PCD v0.7 - Point Cloud Data file format
VERSION 0.7
FIELDS x y z
SIZE 4 4 4
TYPE F F F
COUNT 1 1 1
WIDTH 1419
HEIGHT 1
VIEWPOINT 0 0 0 1 0 0 0
POINTS 1419
DATA ascii
-0.03118231 0.051523305 0.70650327
-0.027829999 0.051428288 0.70503384
-0.0245363 0.051358055 0.70417881
-0.021278406 0.05140483 0.70492804
-0.018031767 0.051522419 0.70635223
-0.014751425 0.05154347 0.70670575
-0.011447938 0.051472522 0.70579779
-0.0081335874 0.051412039 0.70501161
-0.0048483578 0.051349498 0.70417553
-0.0015704618 0.051265895 0.70305055
0.0016994819 0.051264118 0.70302618
0.0049773077 0.051345993 0.70412749
0.0082599493 0.051392846 0.70474839
0.011541564 0.051408496 0.70491987
0.014827994 0.051359173 0.70417887
0.018080255 0.051291961 0.70317119
0.021294424 0.051183973 0.70189941
0.024268728 0.050575774 0.69345284
0.027434388 0.050441142 0.69179142
0.030279052 0.049823374 0.6831724
nan nan nan
nan nan nan
nan nan nan
nan nan nan
nan nan nan
nan nan nan
nan nan nan
nan nan nan
nan nan nan
nan nan nan
nan nan nan
nan nan nan
nan nan nan
nan nan nan
nan nan nan
nan nan nan
nan nan nan
nan nan nan
nan nan nan
nan nan nan
nan nan nan
nan nan nan
nan nan nan
nan nan nan
nan nan nan
nan nan nan
nan nan nan
nan nan nan
nan nan nan
nan nan nan
nan nan nan
nan nan nan
nan nan nan
nan nan nan
0.14335312 0.050449438 0.68959051
0.14719433 0.050674524 0.69231361
0.15054007 0.050722156 0.69258845
0.15363032 0.050660934 0.69165075
0.15647933 0.05054421 0.6896385
0.15938029 0.050432973 0.68799734
0.16267265 0.050460752 0.68795764
0.165876 0.050466124 0.68756843
0.16915692 0.050471973 0.68748027
0.1723727 0.050478563 0.68710667
0.17563429 0.050497297 0.68685436
0.17916878 0.050569899 0.68762887
0.18227313 0.050546881 0.6868071
0.18538862 0.050521009 0.68590307
0.18887801 0.050579488 0.68643904
0.19205956 0.050569512 0.68574959
0.19523381 0.050562896 0.68506187
0.19863777 0.050608769 0.68508428
0.2019511 0.050635226 0.68482065
0.20521988 0.050649177 0.68438685
0.20865147 0.050696269 0.6843558
0.21222509 0.050780475 0.68482357
0.21565546 0.05082256 0.68472087
0.21838884 0.050706021 0.68243772
0.22184612 0.050752841 0.68235356
0.22509797 0.050756309 0.68166316
0.228543 0.050797105 0.68145084
0.23171709 0.050798755 0.68041742
0.235089 0.05082589 0.67997515
0.23851635 0.050858811 0.67960858
0.24216722 0.050954685 0.67976373
0.24557295 0.050979648 0.67926461
0.24985184 0.051204421 0.6810832
0.25317267 0.05120296 0.68018228
0.25637707 0.05119992 0.67892075
0.25995341 0.051248088 0.67863142
0.26349711 0.051310368 0.67820954
0.26669106 0.051303867 0.67687714
0.26998401 0.051316332 0.67575037
0.27441058 0.051514864 0.67733997
0.27780896 0.051543873 0.6764015
0.28158176 0.05163677 0.67627579
0.28529435 0.051716618 0.6759299
0.28871578 0.051742468 0.67487544
0.29285738 0.051895354 0.67547303
0.29743075 0.052120507 0.67695582
0.30055907 0.052090276 0.67509365
0.30362031 0.052030478 0.67314291
0.30702147 0.052047879 0.67187643
0.31115997 0.052192383 0.67222339
0.31445602 0.052194029 0.67072612
0.31804863 0.052248094 0.66987813
0.32183078 0.052309148 0.66938436
0.32573098 0.052413866 0.66915339
0.32924086 0.05243516 0.66812098
0.33339685 0.052561026 0.66843909
0.33710259 0.052617203 0.66781968
0.34060475 0.052643914 0.6668458
0.34467998 0.052764405 0.66705513
0.34878603 0.052867308 0.66730297
0.35191417 0.052827448 0.66576868
0.35487103 0.052772269 0.66404146
0.35956442 0.0529765 0.66559684
0.36252004 0.052906077 0.66398746
0.3659758 0.052944563 0.66345286
-0.3552528 0.051777214 0.60692966
-0.34836888 0.051214475 0.60040534
-0.34540218 0.051230382 0.60070592
-0.34532472 0.05166528 0.60617036
-0.34374538 0.051910732 0.60920727
-0.34004927 0.051821303 0.6085856
-0.33749849 0.051893301 0.61013037
-0.33565053 0.052084439 0.61307776
-0.33207586 0.052014198 0.61296958
-0.32915479 0.052054867 0.61418772
-0.32697445 0.052198824 0.61687773
-0.32340702 0.052128036 0.61702961
-0.32020923 0.052118663 0.61792672
-0.31920239 0.052457534 0.62319034
-0.32222521 0.053474929 0.63656789
-0.32161188 0.053906348 0.6430037
-0.32397515 0.054857552 0.6556496
-0.32453176 0.055518869 0.66486788
nan nan nan
-0.33748218 0.058942247 0.70891684
-0.3342931 0.058994319 0.71117854
-0.33053815 0.058974888 0.7122888
-0.32536438 0.058674622 0.71026415
-0.32129788 0.058569681 0.71059293
-0.31734836 0.058483999 0.71112633
-0.31330845 0.058384001 0.71145684
-0.30839714 0.058113076 0.70967096
-0.30403757 0.057945658 0.70911407
-0.29973638 0.057785615 0.70861548
-0.29562759 0.057654787 0.70846784
-0.29181701 0.057584345 0.70903361
-0.28804761 0.057515774 0.70959556
-0.28427273 0.057467848 0.71007323
-0.27915001 0.057118963 0.70713508
-0.27488908 0.056939989 0.70624143
-0.27122691 0.056882117 0.70682114
-0.26774549 0.05687942 0.70777363
-0.26413113 0.056829263 0.70842206
-0.26060608 0.056792237 0.70920926
-0.2569789 0.056754801 0.70967758
-0.25258225 0.056520458 0.7079435
-0.24838148 0.056347173 0.70665503
-0.2448723 0.056322232 0.70720017
-0.24140826 0.056288913 0.70792639
-0.23784159 0.056247871 0.70824295
-0.23417634 0.056181319 0.70821333
-0.23022115 0.056041576 0.70723462
-0.22632542 0.055911686 0.70635325
-0.22272566 0.055851419 0.70634818
-0.21898989 0.055731364 0.70584768
-0.2156764 0.055739392 0.70665789
-0.21232598 0.055759858 0.70731622
-0.20893905 0.0557472 0.70784032
-0.20526844 0.055656467 0.70734882
-0.20164144 0.05556782 0.70685863
-0.19812317 0.055512227 0.70678681
-0.19471532 0.05548545 0.70705789
-0.19125736 0.055464856 0.70709842
-0.18769288 0.055388086 0.70670724
-0.18434247 0.055372071 0.70704496
-0.18114525 0.055423871 0.70798516
-0.17779858 0.055407003 0.70828879
-0.17452882 0.055420168 0.70897591
-0.17127745 0.055454031 0.70961946
-0.16795591 0.05544934 0.710033
-0.16432044 0.055352621 0.70898128
-0.1604318 0.05514843 0.70681387
-0.15712197 0.055160075 0.70712644
-0.15350987 0.055039767 0.7059862
-0.15023893 0.05503824 0.70636827
-0.14689335 0.055038076 0.7064839
-0.14360806 0.055028424 0.70673883
-0.14014705 0.054979064 0.70617801
-0.13675214 0.054929737 0.7058779
-0.13327812 0.054866303 0.70511329
-0.12992688 0.054836556 0.70504147
-0.12674096 0.054888166 0.70573318
-0.12359878 0.054947432 0.70678389
-0.12030357 0.054960795 0.70693982
-0.11692659 0.054912094 0.70657945
-0.11377509 0.054990195 0.70754641
-0.11024357 0.054870192 0.70622396
-0.10690791 0.054841943 0.70608181
-0.10356691 0.054829542 0.70584023
-0.10035589 0.054862682 0.70644438
-0.097232021 0.054945819 0.70767069
-0.093915887 0.05495543 0.7076686
-0.090496369 0.054878015 0.70682704
-0.087291636 0.054928266 0.70758599
-0.083920129 0.054871693 0.70696878
-0.080596916 0.054863382 0.70669258
-0.077259891 0.054834511 0.70638853
-0.074196883 0.055004273 0.7086435
-0.070873931 0.054986134 0.70845592
-0.067429304 0.054865111 0.70694256
-0.06401822 0.054758132 0.70558828
-0.060750164 0.054785762 0.70594686
-0.057496998 0.054807588 0.70623058
-0.054172292 0.054779019 0.70584327
-0.050666399 0.054548878 0.70283717
-0.047534455 0.054692734 0.70490694
-0.044215433 0.054648288 0.70427173
-0.040954102 0.054699119 0.70484281
-0.037683051 0.054687958 0.70487183
-0.03434987 0.054631833 0.70404291
-0.031077126 0.054606032 0.70386136
-0.027875131 0.054777123 0.70593935
-0.024548985 0.054690048 0.70492512
-0.021255894 0.054682672 0.70465982
-0.017992761 0.054734282 0.70541126
-0.014713799 0.054750022 0.70570052
-0.011424943 0.054727416 0.70547396
-0.0081334664 0.054690547 0.70476371
-0.0048466022 0.054605056 0.70368356
-0.0015691938 0.054491866 0.70224643
0.0016983888 0.054498933 0.7023375
0.0049683391 0.054522682 0.70262206
0.0082561579 0.054624293 0.70418775
0.011500639 0.054472182 0.70216233
0.014793265 0.054564964 0.70331526
0.018062498 0.054553479 0.70308107
0.021279318 0.054390021 0.70116532
0.024453729 0.054191861 0.69850373
0.027624413 0.054032926 0.69632715
0.030717652 0.053787757 0.69331396
0.033905402 0.053722449 0.69232363
0.037148859 0.05375858 0.69289315
0.040356714 0.053709883 0.69236928
0.04350289 0.053636599 0.69123369
0.046361398 0.053221963 0.68595093
0.049445566 0.053100422 0.6844241
0.052438881 0.052899424 0.6818729
0.055630267 0.0529074 0.68199444
0.05846655 0.05261156 0.67819947
0.061157595 0.052219816 0.67314732
0.06419272 0.052126884 0.6719265
nan nan nan
nan nan nan
nan nan nan
0.076626018 0.052083366 0.67112899
0.079372823 0.05184456 0.66796708
nan nan nan
nan nan nan
nan nan nan
nan nan nan
nan nan nan
nan nan nan
nan nan nan
nan nan nan
nan nan nan
nan nan nan
nan nan nan
nan nan nan
0.12030613 0.052050725 0.66978598
0.12351026 0.052098721 0.67010885
0.12707116 0.05226922 0.67227519
0.13113643 0.052652948 0.67689109
0.13527274 0.053024359 0.6816172
0.13957168 0.053460285 0.68687451
0.14344259 0.053702001 0.6898874
0.14695877 0.05382289 0.69106948
0.15033142 0.053864609 0.69148988
0.15347168 0.053842876 0.69079584
0.15667138 0.053827349 0.69045925
0.1596595 0.053753834 0.68907958
0.16271256 0.053689301 0.68807137
0.16594562 0.053698476 0.68773025
0.1690685 0.053678386 0.68699241
0.17231864 0.053676218 0.68673921
0.17560485 0.053705242 0.68660718
0.17897436 0.053742271 0.68683237
0.1821875 0.053745639 0.68632722
0.1853991 0.053747695 0.68578321
0.18861684 0.053735137 0.68532962
0.19202298 0.05378997 0.68545717
0.19518878 0.053782061 0.6847406
0.19800255 0.05367827 0.68280417
0.20114166 0.05363632 0.68191022
0.20481932 0.053763162 0.6828838
0.20840658 0.053856406 0.68338376
0.21247497 0.054074161 0.68545914
0.21586996 0.054110408 0.6852299
0.21871056 0.054013453 0.68327016
0.22153258 0.053908817 0.68121547
0.22507864 0.053985488 0.68142956
0.22810726 0.053953774 0.67997563
0.23308681 0.054355953 0.68426114
0.23469315 0.053970635 0.67858845
0.23823483 0.054034233 0.67856431
0.24203211 0.054174766 0.67920369
0.24537961 0.054190211 0.67852587
0.24893048 0.05426627 0.67832834
0.25260296 0.054349188 0.67844534
0.25631937 0.054456215 0.67858261
0.25980005 0.054488905 0.67804462
0.26294172 0.054472215 0.67659289
0.26712564 0.054664671 0.67771262
0.26966706 0.054524917 0.67469025
0.27426195 0.054771937 0.67672729
0.27779886 0.054830484 0.67610842
0.28137469 0.054890908 0.67550975
0.28520367 0.054998752 0.67546815
0.28908667 0.055114452 0.67549497
0.29339078 0.055306938 0.67643249
0.29685348 0.055338293 0.67537099
0.30024409 0.055333082 0.67413765
0.30381244 0.055386595 0.67332011
0.30749106 0.055454772 0.67263246
0.31078815 0.055457465 0.67117113
0.31663194 0.055909783 0.67509353
0.31786489 0.055528291 0.66921908
0.32193294 0.055667143 0.66934687
0.32554784 0.05571067 0.66855079
0.32930005 0.055795025 0.66799045
0.33333018 0.055909175 0.66803122
0.33700979 0.055969991 0.66742951
0.34071127 0.05600984 0.66684711
0.34415174 0.056035902 0.66580194
0.3480027 0.056111671 0.66563934
0.35152754 0.05613669 0.6648711
0.35500929 0.056164484 0.6641559
0.35835338 0.056172941 0.66318679
0.36227563 0.056257863 0.66341251
0.36545026 0.056235585 0.66239452
-0.3579874 0.055296928 0.61160702
-0.34957376 0.054480966 0.60251051
-0.34698719 0.054549694 0.60343468
-0.34548074 0.054802604 0.60641801
-0.34334847 0.05494345 0.60844153
-0.34005433 0.054908052 0.60851264
-0.33680624 0.054888364 0.60879868
-0.33496678 0.055105444 0.61171097
-0.33328822 0.055341013 0.61509049
-0.33090413 0.055472329 0.61731464
-0.32666868 0.055273853 0.61612517
-0.32407057 0.055361435 0.61812079
-0.32072639 0.055324875 0.61875099
-0.31777152 0.055362009 0.62018251
-0.31927252 0.056169119 0.63051778
-0.32137042 0.057101738 0.64227909
-0.32552919 0.058430623 0.65857029
-0.3258768 0.059095297 0.66739714
-0.33664784 0.06166815 0.69809109
-0.33767265 0.062514164 0.70905489
-0.33550701 0.062761225 0.71352267
-0.3307777 0.062552914 0.71251643
-0.32538086 0.062192503 0.71001315
-0.32135093 0.062088378 0.71039993
-0.31718081 0.061954584 0.71044117
-0.31319386 0.061858695 0.71088743
-0.30823889 0.061562572 0.70899916
-0.30419776 0.061449084 0.7092042
-0.29960498 0.061220247 0.70802242
-0.29596135 0.061177421 0.70898539
-0.29177731 0.061025474 0.70863223
-0.28814366 0.061004866 0.70952737
-0.28416064 0.060884874 0.70951241
-0.27988032 0.060702555 0.70874083
-0.27516508 0.060410015 0.70667183
-0.27170804 0.060418244 0.70779639
-0.26743412 0.060218945 0.706734
-0.26400036 0.060200866 0.70779383
-0.26053005 0.060202349 0.70878786
-0.25617161 0.059966821 0.7072354
-0.25247076 0.059904028 0.7074194
-0.2487531 0.059806351 0.70743674
-0.24494043 0.059711389 0.70718813
-0.24136059 0.059664994 0.70751196
-0.23770835 0.059581354 0.70763999
-0.23414719 0.059535518 0.70792025
-0.23059312 0.059489515 0.70817375
-0.22661142 0.059329499 0.70704395
-0.2227418 0.059193771 0.70619917
-0.21907845 0.059108861 0.70593446
-0.21547483 0.059036989 0.70580041
-0.21231274 0.059085011 0.70709884
-0.20899075 0.05908864 0.70784348
-0.20560327 0.059095412 0.708332
-0.20164463 0.058911465 0.70678008
-0.19814831 0.058851257 0.70668697
-0.19464616 0.058793288 0.70661902
-0.19108891 0.058737997 0.70631212
-0.18757869 0.058671467 0.70609307
-0.18420224 0.058644339 0.70634693
-0.18092768 0.058670796 0.706954
-0.17753568 0.058642805 0.70715141
-0.17409293 0.058610622 0.70702821
-0.17120373 0.058743097 0.70913863
-0.16777349 0.058720719 0.70911074
-0.16372447 0.058452409 0.70633513
-0.1603855 0.058453083 0.70656139
-0.15703107 0.058423985 0.70665091
-0.15367074 0.058412597 0.70668608
-0.15023504 0.058347356 0.70631474
-0.1468648 0.058326304 0.70618778
-0.1435037 0.058292855 0.70617759
-0.14017373 0.058291819 0.70627022
-0.13671379 0.058233209 0.70566499
-0.13336976 0.058198117 0.70558894
-0.12976153 0.058063902 0.70402211
-0.12648647 0.05806151 0.70429713
-0.12342309 0.058179531 0.70576686
-0.12028165 0.058231242 0.7066766
-0.11695912 0.058238272 0.70677787
-0.11365069 0.058217213 0.7067824
-0.11031257 0.058211397 0.70668375
-0.10693458 0.058147039 0.70613992
-0.10367263 0.058176484 0.70644742
-0.10041421 0.05818516 0.7067464
-0.097048506 0.058141772 0.70641273
-0.093715996 0.058122668 0.70608681
-0.090494893 0.058162823 0.70672411
-0.087109447 0.058094744 0.70602429
-0.083837017 0.05811974 0.70619076
-0.080445752 0.058051392 0.70548749
-0.077353284 0.058183786 0.7071802
-0.074161708 0.058265243 0.70825416
-0.070925094 0.058315217 0.70894551
-0.067447595 0.058181971 0.70710129
-0.064079419 0.058107939 0.70624161
-0.060765199 0.058095872 0.70611328
-0.057472952 0.058080215 0.70594138
-0.054006103 0.057874493 0.70370024
-0.050708085 0.057856452 0.70345587
-0.047424819 0.057850938 0.7033422
-0.044255786 0.05799108 0.70499939
-0.040921476 0.057916302 0.70402211
-0.037643183 0.057922553 0.7042709
-0.034387168 0.057952743 0.70454812
-0.031067319 0.057884455 0.70386899
-0.027789691 0.057864651 0.70349532
-0.024529342 0.057903919 0.70410216
-0.021265691 0.057967898 0.7047255
-0.017981512 0.057959612 0.7047112
-0.014703839 0.057973284 0.70496374
-0.011420726 0.057988789 0.70493293
-0.0081366422 0.057970878 0.70477992
-0.0048443563 0.057830848 0.70309907
-0.0015698549 0.05776206 0.70228428
0.0016965291 0.057681989 0.70131075
0.0049628001 0.05770598 0.70158094
0.0082215546 0.057658214 0.70097876
0.01149182 0.057673901 0.70136619
0.014761752 0.05769331 0.70155925
0.018058276 0.057790786 0.70265841
0.021296266 0.057678286 0.7014659
0.024483064 0.057491291 0.69908464
0.027631925 0.057313826 0.69679856
0.030860292 0.057260137 0.69627732
0.034092344 0.057254642 0.69632065
0.037230562 0.057091117 0.69416159
0.040432893 0.05705294 0.69378585
0.043708425 0.05711291 0.69458252
0.04695389 0.057146426 0.69477689
0.050110523 0.05705316 0.69366765
0.052917741 0.056594934 0.68812084
0.056368206 0.05683529 0.6910466
0.059411641 0.056679342 0.68915385
0.062531933 0.056606743 0.6882534
0.06584049 0.056683023 0.68914175
0.069130264 0.056752209 0.68992263
0.072389953 0.056785185 0.69052148
0.075320601 0.056569908 0.68782228
0.078338988 0.05644891 0.68624872
0.081464842 0.05639549 0.68549687
0.084608331 0.056349188 0.68506747
0.087718695 0.056316633 0.6845482
0.091061585 0.056415826 0.68558782
0.094357871 0.056470472 0.68634325
0.09763138 0.05651449 0.68671155
0.10047578 0.056316413 0.68435353
0.1034998 0.056235172 0.68317908
0.10695942 0.056387138 0.68479496
0.1106604 0.056642249 0.68792069
0.11366867 0.056535993 0.68663627
0.11656296 0.056399371 0.68470365
0.12004725 0.056525446 0.68621892
0.12336866 0.056599163 0.68681771
0.12655558 0.056577031 0.68651217
0.12949367 0.05647606 0.68496966
0.13246125 0.056370124 0.68360502
0.13626529 0.056623608 0.68657732
0.13976109 0.05675108 0.68776035
0.14320408 0.056837954 0.68871063
0.14663243 0.056934994 0.68947887
0.14995638 0.056965705 0.68970424
0.15329649 0.056999285 0.68994236
0.156489 0.056997586 0.68949115
0.1596114 0.056956138 0.68879908
0.16274063 0.056931082 0.68802184
0.16595444 0.056920946 0.68768644
0.16915762 0.056927629 0.68727058
0.17241231 0.05692859 0.68702507
0.17566215 0.056948043 0.68674046
0.17890793 0.056943022 0.68640012
0.18214935 0.056956988 0.68600458
0.18544288 0.056992423 0.68586683
0.18866581 0.056976244 0.6853472
0.19184257 0.056973677 0.68470728
0.19502237 0.056964997 0.6839937
0.1981125 0.05691462 0.68299717
0.2013009 0.056907851 0.68228441
0.20445016 0.056895785 0.68146425
0.20797855 0.056981318 0.68181169
0.21149987 0.057067577 0.68214339
0.21549557 0.057270847 0.68384773
0.21817601 0.057128821 0.68140578
0.22167909 0.057196889 0.6814701
0.22513747 0.057256591 0.68141055
0.22851904 0.057289202 0.68100476
0.23082073 0.057053365 0.67741013
0.23535304 0.057367161 0.68029565
0.23829408 0.057311233 0.67853159
0.24197146 0.057409476 0.67883068
0.24539356 0.057439584 0.67829943
0.24865296 0.05745792 0.67736721
0.25233045 0.057544008 0.67744786
0.256008 0.057649471 0.67749214
0.25943947 0.057675406 0.67683721
0.2624889 0.057638448 0.67516154
0.26609913 0.057724033 0.67489809
0.27054372 0.057981621 0.67661583
0.27398974 0.058004018 0.67584282
0.27756134 0.058069281 0.67526215
0.28144261 0.058197062 0.67540395
0.28506055 0.058268085 0.67486012
0.28895128 0.058392614 0.67490888
0.29293424 0.058532778 0.67510957
0.29674453 0.058635708 0.67485231
0.30028778 0.058666021 0.67399281
0.30392304 0.058731165 0.67327124
0.30749166 0.058782175 0.67236215
0.31083691 0.058794137 0.67098212
0.31433293 0.058815647 0.66996819
0.31875435 0.059030272 0.67086673
0.32205936 0.059035879 0.66936129
0.32540378 0.059029903 0.66798198
0.32934818 0.059135403 0.66786075
0.33299834 0.059194122 0.66718376
0.33704701 0.059321374 0.66727394
0.34057534 0.059362981 0.66639584
0.3440387 0.059373166 0.6654197
0.34747013 0.059384633 0.66445595
0.35137466 0.059482876 0.66445941
0.35471427 0.059487533 0.66341382
0.35872126 0.059590556 0.66374177
0.36209458 0.059597477 0.66299593
0.3641102 0.059385359 0.65983731
-0.3492083 0.056987677 0.59663469
-0.34953645 0.057541601 0.6023953
-0.34763783 0.057743885 0.60453832
-0.3464033 0.05805175 0.60801113
-0.34353018 0.058093391 0.60871768
-0.34004375 0.058015123 0.60841173
-0.33760175 0.058128402 0.61013466
-0.33580306 0.058361441 0.61313766
-0.33443868 0.058659498 0.61707473
-0.33057582 0.05853099 0.61652499
-0.3282727 0.058685262 0.61897397
-0.3247509 0.058611486 0.61924314
-0.32214189 0.058705695 0.62128586
-0.31959951 0.058821075 0.62357634
-0.32127792 0.059726559 0.63423812
-0.32482621 0.060986873 0.64896345
-0.32557034 0.061748818 0.65840662
-0.32799789 0.062848523 0.67149049
-0.33478507 0.064795583 0.69392163
-0.33785951 0.06608516 0.70913446
-0.33454931 0.066120364 0.71117306
-0.33101481 0.066135578 0.71271431
-0.32596323 0.06582503 0.71097261
-0.32207251 0.065744713 0.71168411
-0.31694546 0.0654075 0.70960468
-0.31301188 0.065316781 0.71016544
-0.30883995 0.065168716 0.71007335
-0.30421233 0.064925097 0.70893103
-0.30044922 0.064862482 0.70971066
-0.29555425 0.064569555 0.70770484
-0.29203898 0.064555734 0.70896238
-0.28782654 0.064380407 0.70844209
-0.28395158 0.064282544 0.70874488
-0.27971223 0.064093433 0.70801204
-0.27602232 0.064027116 0.70863038
-0.2721453 0.063938454 0.7086938
-0.26722962 0.063571058 0.70591617
-0.26375458 0.06354697 0.70689648
-0.26024818 0.063532062 0.70772082
-0.25649402 0.063431777 0.70782572
-0.25238901 0.063263915 0.70689148
-0.24865094 0.063184053 0.70691311
-0.24512874 0.063134007 0.70752281
-0.24128637 0.063015893 0.70706403
-0.2372811 0.062856674 0.70613945
-0.23373817 0.062810294 0.70645624
-0.23035264 0.062804811 0.70723182
-0.22698468 0.062780574 0.70800638
-0.22308408 0.062628858 0.70708388
-0.21908879 0.062467463 0.70576918
-0.21538579 0.062361594 0.70531166
-0.21201277 0.062348723 0.70588148
-0.2090217 0.062448848 0.70773101
-0.20517682 0.062292255 0.70664752
-0.20162055 0.062218841 0.70650452
-0.19810794 0.062178385 0.70643365
-0.1948653 0.062198702 0.70730799
-0.1910761 0.06206388 0.70613903
-0.18749703 0.061969735 0.70568568
-0.18400724 0.061901469 0.70550251
-0.18065259 0.061898503 0.70578569
-0.17726503 0.061859969 0.70589471
-0.17392823 0.06186739 0.7062729
-0.17129382 0.062097639 0.70942867
-0.16734062 0.06187908 0.7071799
-0.16376734 0.061784748 0.70634937
-0.16034171 0.0617279 0.70617777
-0.15707377 0.061751898 0.70667672
-0.15369652 0.061708964 0.70661855
-0.15027459 0.061666995 0.70633924
-0.14682649 0.061619423 0.70595092
-0.14348675 0.061592057 0.7060467
-0.14009358 0.061551265 0.70571291
-0.13686749 0.061591476 0.70628566
-0.13344921 0.06152086 0.70583957
-0.12988994 0.061411299 0.70467156
-0.12641826 0.06130366 0.70377654
-0.12332927 0.061412495 0.70509261
-0.12026641 0.06153829 0.70658165
-0.11700252 0.061541006 0.70690942
-0.11338791 0.061374709 0.70502174
-0.11018267 0.061414368 0.70572919
-0.10695088 0.061461743 0.7062521
-0.10367239 0.061459795 0.70645958
-0.10033669 0.061443113 0.70624614
-0.097189888 0.061520062 0.70731664
-0.093819514 0.061490554 0.70691204
-0.090333782 0.061340712 0.70535284
-0.087042965 0.061352443 0.70540071
-0.08365383 0.061283819 0.7047531
-0.080478087 0.061353941 0.70567906
-0.077255525 0.061390944 0.70622432
-0.074024022 0.061461709 0.70688581
-0.070787765 0.061509121 0.70750737
-0.067473069 0.061487552 0.70731366
-0.064097829 0.061403543 0.70640153
-0.060741812 0.061349444 0.70583332
-0.057449415 0.061331429 0.70563668
-0.054194223 0.06137529 0.70615208
-0.050968681 0.061457764 0.70709002
-0.047457915 0.061180942 0.7038942
-0.044198602 0.061208043 0.70415187
-0.040917102 0.061181217 0.70403767
-0.037668068 0.061224114 0.70447713
-0.034388203 0.061254658 0.70473117
-0.031108772 0.06122379 0.70452732
-0.027800757 0.061191883 0.70406282
-0.024515357 0.061180487 0.70403963
-0.021265265 0.061226688 0.70443076
-0.018007552 0.061307821 0.70545065
-0.014751845 0.061433528 0.70698375
-0.011431279 0.061283752 0.70532495
-0.0081303744 0.061182685 0.70395672
-0.0048482427 0.061130956 0.70338309
-0.0015690546 0.060978193 0.7016468
0.0016971406 0.060946684 0.70128429
0.0049623623 0.060944684 0.70123976
0.0082366932 0.06101175 0.70198995
0.011498312 0.060951799 0.70150441
0.014757263 0.060919359 0.70106667
0.018026501 0.060933441 0.70114279
0.021243177 0.060832735 0.70014513
0.024450731 0.060698614 0.69849437
0.027646689 0.060549237 0.69691449
0.030873416 0.060550354 0.69677782
0.034146119 0.060573552 0.69714105
0.037384655 0.06058966 0.69717675
0.040527169 0.060438618 0.69549227
0.04378172 0.060432013 0.6954698
0.046988588 0.060389515 0.69501287
0.050133344 0.060300697 0.69402283
0.053290471 0.060209934 0.69298905
0.05658333 0.060271688 0.69368941
0.05979041 0.060259517 0.69351757
0.062874518 0.060128812 0.69198155
0.06616246 0.060194194 0.69268084
0.069325522 0.060143191 0.69204086
0.072483048 0.060090236 0.6913358
0.075722054 0.060083345 0.69140583
0.078763671 0.059960783 0.68989998
0.082033694 0.060013227 0.69038641
0.085510857 0.060184598 0.69246483
0.088482156 0.060018621 0.69039536
0.091661207 0.059998754 0.69000697
0.094750389 0.059914123 0.68909758
0.097878486 0.059877347 0.68847239
0.10108519 0.059866816 0.68839383
0.10396095 0.05968561 0.68608695
0.10713486 0.059670582 0.68593526
0.11088019 0.059951421 0.68914199
0.1142517 0.060050163 0.69000918
0.11704458 0.059825152 0.68740189
0.12008586 0.059765447 0.68642747
0.12385736 0.06002995 0.68940043
0.12665007 0.05982659 0.6869787
0.13000612 0.059912134 0.68762839
0.13334674 0.059964169 0.68811733
0.13655409 0.059953198 0.6878829
0.13989939 0.060030654 0.68839455
0.143103 0.060013711 0.68804812
0.14631264 0.060006917 0.68781799
0.14969377 0.060088947 0.68833673
0.15312296 0.060163941 0.68899924
0.15623018 0.060118463 0.68828177
0.15945327 0.060130239 0.68795043
0.16262858 0.060109392 0.68747139
0.16581932 0.060085423 0.68695647
0.16925697 0.060177844 0.68750203
0.17256375 0.060198676 0.68745452
0.17568922 0.060176764 0.68667066
0.17885078 0.060152583 0.68608695
0.18214095 0.060184758 0.68587583
0.18545935 0.060202491 0.68574703
0.18883079 0.060263757 0.68584335
0.19216722 0.060304441 0.68568218
0.1951919 0.060231764 0.68445784
0.19833297 0.06021056 0.6835708
0.20121647 0.060118888 0.68186271
0.20382948 0.059921741 0.67920721
0.20758024 0.060086723 0.68036556
0.21186775 0.060392827 0.68311578
0.21465026 0.060272656 0.68104166
0.21789259 0.060276542 0.68032634
0.22216341 0.060560029 0.68276268
0.2253436 0.06054762 0.68183702
0.22852954 0.060530636 0.68083769
0.23179892 0.060535297 0.68005937
0.23491777 0.060500458 0.67883712
0.23865911 0.060646147 0.67936915
0.24186248 0.060625508 0.67826027
0.24547294 0.060710978 0.67831481
0.24897455 0.060783766 0.67795575
0.25191578 0.060697541 0.67606944
0.25587201 0.060881801 0.67690283
0.25921911 0.060890991 0.67603189
0.26272675 0.060953669 0.67548472
0.26632231 0.06104007 0.67517519
0.27044263 0.061238185 0.67607313
0.27387574 0.061260503 0.67527151
0.27722976 0.061281666 0.67416531
0.28141132 0.06148313 0.67503774
0.28503013 0.061558437 0.67449659
0.28855106 0.061611127 0.67368233
0.29253864 0.061761159 0.67390537
0.29668033 0.061917465 0.67441297
0.30026627 0.0619823 0.67365092
0.30372038 0.062014192 0.67252856
0.30689174 0.06199285 0.67080605
0.3106657 0.062092409 0.67036724
0.31514618 0.0623069 0.67140627
0.31881315 0.062384401 0.67069483
0.32211348 0.06237096 0.66922539
0.3251715 0.062333629 0.6672563
0.32937127 0.062495276 0.66765749
0.33281341 0.062519453 0.66656232
0.336669 0.062596746 0.66627359
0.34046048 0.062691085 0.66591811
0.3438963 0.062703758 0.66493493
0.34746364 0.062743187 0.66423291
0.35078511 0.062745228 0.66315573
0.35483369 0.06286034 0.66348994
0.358428 0.062900335 0.66305029
0.36140284 0.06284263 0.66160226
0.3659319 0.063037328 0.66305155
-0.35253125 0.060608011 0.60229611
-0.34955403 0.060616676 0.60243291
-0.34811291 0.060903177 0.60535234
-0.34676206 0.061219815 0.60859317
-0.34416413 0.061303899 0.60975718
-0.34083667 0.061271843 0.60978645
-0.33778331 0.061273314 0.61038226
-0.33632857 0.061573736 0.61395729
-0.33387643 0.061709721 0.61593813
-0.33171085 0.061882664 0.61850411
-0.32843083 0.061859909 0.61911446
-0.32624832 0.062030856 0.6219008
-0.32253352 0.061939824 0.62184495
-0.32164523 0.062354945 0.62730759
-0.32160544 0.062978253 0.63468736
-0.32630426 0.064528488 0.6516484
-0.32787174 0.065515451 0.66274363
-0.32890874 0.066378519 0.67308086
-0.33249015 0.067801088 0.68888527
-0.33745214 0.069542587 0.70799345
-0.33472866 0.069696009 0.71121716
-0.33043286 0.069555961 0.71117669
-0.32607195 0.069369368 0.71087426
-0.32255062 0.069364436 0.71240515
-0.3168135 0.068877675 0.70897609
-0.31279406 0.068762913 0.70933872
-0.30799463 0.068472162 0.7078532
-0.30435005 0.06842912 0.70892102
-0.30056676 0.068382539 0.70965773
-0.29631725 0.068197951 0.70920217
-0.29150185 0.067882702 0.70735371
-0.28813681 0.067896187 0.70890093
-0.28373912 0.067669317 0.70791078
-0.27960324 0.067494452 0.70743322
-0.27589023 0.067441903 0.70796537
-0.27148005 0.067191601 0.70665991
-0.2676869 0.067089625 0.70686108
-0.26384884 0.066990882 0.70684856
-0.26031184 0.066943265 0.70759362
-0.25641146 0.066828802 0.70736182
-0.25245583 0.066666923 0.70684415
-0.2487299 0.066585131 0.70690447
-0.24497949 0.066487558 0.70679408
-0.2410145 0.066310987 0.70603716
-0.2370761 0.066153355 0.70523304
-0.23359244 0.066125683 0.70578855
-0.23033699 0.066155538 0.70693481
-0.2268744 0.066125229 0.70743752
-0.22335869 0.066077612 0.70773077
-0.2187852 0.06571015 0.70457017
-0.21571693 0.065789707 0.70617598
-0.21191451 0.065643631 0.70533615
-0.2084516 0.06562157 0.70558399
-0.20504516 0.065592833 0.70597893
-0.20151323 0.065521605 0.70591486
-0.19819613 0.065540746 0.70653605
-0.19472648 0.065485232 0.70659375
-0.19113614 0.065385729 0.70615244
-0.18759392 0.065321088 0.70584369
-0.18389502 0.065174595 0.70486766
-0.1806445 0.065206081 0.70555121
-0.17728171 0.065181687 0.70584881
-0.17393866 0.065176859 0.70611608
-0.17045864 0.065126278 0.70586473
-0.16684003 0.064987049 0.70486975
-0.16351771 0.064990081 0.7051757
-0.1603528 0.065055266 0.7061336
-0.15706214 0.065047063 0.7065357
-0.15359719 0.064985983 0.70607764
-0.15013281 0.064920492 0.70559317
-0.14673492 0.064867169 0.70543599
-0.14338997 0.064846419 0.70539224
-0.14018174 0.064896092 0.70609242
-0.13683362 0.064857684 0.70605183
-0.13355406 0.064871632 0.70634085
-0.13026042 0.064877041 0.70651472
-0.1264907 0.064648367 0.70413882
-0.12342675 0.064753503 0.70561558
-0.12018382 0.064788647 0.70606899
-0.11659908 0.064633831 0.70445186
-0.1134251 0.064679883 0.70521867
-0.11011367 0.064681388 0.70528305
-0.10688426 0.064694829 0.70567232
-0.10352912 0.064664736 0.70534807
-0.10017463 0.064630195 0.70495361
-0.097029224 0.064722545 0.70618135
-0.093512461 0.064570203 0.7044794
-0.09025339 0.064581797 0.70478207
-0.086831085 0.064471424 0.70375329
-0.08362709 0.0645409 0.70442837
-0.08041162 0.064581536 0.70500422
-0.077157214 0.064631134 0.70541877
-0.073870383 0.064612135 0.70532197
-0.0705183 0.064549528 0.70474887
-0.067250289 0.064559408 0.70492369
-0.064043745 0.064630106 0.70576251
-0.06067203 0.064553477 0.70497084
-0.057410743 0.064565405 0.70514613
-0.054196596 0.064658254 0.70618355
-0.050867081 0.064613774 0.7056995
-0.047498077 0.064506508 0.70450801
-0.044153657 0.064415954 0.70349908
-0.040910002 0.064466216 0.70400649
-0.037648562 0.064490989 0.70421392
-0.034387987 0.064496391 0.70444584
-0.031092696 0.064497352 0.70437157
-0.027832203 0.064502425 0.70455664
-0.024554493 0.064542003 0.70488256
-0.02125903 0.064511649 0.7046591
-0.017975921 0.064536147 0.70477712
-0.01472252 0.064575866 0.70527565
-0.011423586 0.064503305 0.704548
-0.0081344843 0.064450145 0.70401049
-0.0048498013 0.064383805 0.70332897
-0.0015719348 0.064341664 0.70263332
0.0016970163 0.064185888 0.7009322
0.0049624932 0.064168692 0.70097905
0.0082387831 0.064253904 0.70186687
0.011497208 0.064190947 0.70113623
0.014739745 0.064180203 0.70095444
0.017995231 0.064121425 0.70048261
0.021237355 0.064055294 0.69967431
0.024442201 0.063909285 0.69797248
0.027648706 0.063829377 0.69720501
0.030928334 0.06386862 0.69773895
0.034181304 0.063907906 0.69801825
0.037340183 0.063758306 0.69644672
0.040604632 0.063761458 0.69654369
0.043824796 0.063749045 0.69621569
0.047001053 0.063657492 0.69523549
0.050134562 0.06354785 0.69403636
0.053337324 0.063505948 0.69357705
0.056607746 0.063542351 0.69395161
0.059844408 0.063559331 0.69411403
0.063029036 0.063519947 0.69363958
0.066208258 0.063455805 0.69310635
0.069369249 0.063398331 0.69239169
0.072597645 0.063402943 0.69235498
0.075796403 0.063398398 0.69219702
0.078929506 0.063301377 0.69126219
0.082261644 0.063399784 0.69218552
0.085570864 0.063450798 0.69282448
0.088704266 0.06340602 0.69218415
0.091716766 0.063243367 0.69046903
0.094937347 0.063263081 0.69049031
0.098082438 0.063210107 0.68992978
0.10112591 0.063115709 0.68868428
0.10422576 0.063038573 0.68783885
0.1073856 0.062998697 0.68737864
0.11106904 0.063290499 0.6903035
0.11431727 0.063302301 0.69038534
0.11766033 0.063362174 0.69099134
0.12112452 0.063501552 0.69220775
0.12427581 0.063462272 0.69168931
0.12696826 0.063194446 0.68865854
0.13017882 0.063210696 0.68848985
0.13346881 0.063241303 0.68871111
0.13671622 0.063248739 0.68863672
0.13988687 0.063219145 0.68815911
0.14305186 0.063217476 0.68772948
0.1461786 0.063176885 0.68711054
0.14944287 0.063194342 0.68710107
0.1530564 0.063353799 0.6886133
0.15589073 0.063210607 0.68660092
0.1592634 0.063273169 0.68703681
0.16252606 0.06328027 0.68684828
0.16573726 0.063295662 0.6865145
0.16934015 0.063434735 0.68773407
0.17244448 0.063383706 0.68687022
0.17559868 0.063372649 0.68620425
0.17888534 0.063386455 0.68602043
0.18222865 0.063439667 0.68600529
0.18546332 0.063438818 0.6856398
0.18876211 0.063472509 0.68538988
0.19216774 0.063517876 0.68547827
0.19532999 0.06351006 0.68473488
0.19838937 0.063440114 0.68355685
0.20062789 0.063141331 0.67965955
0.2036977 0.063101999 0.67855817
0.20787391 0.063407324 0.68111598
0.21128811 0.063445419 0.68103331
0.21457875 0.0634728 0.68059981
0.21703304 0.063248634 0.67742735
0.22143653 0.063590117 0.6803112
0.22506328 0.063701302 0.68070328
0.22839952 0.063733771 0.68022996
0.23155114 0.063707888 0.67911118
0.23482767 0.063732028 0.67829084
0.2386768 0.063892692 0.67911071
0.24183534 0.063866049 0.67793727
0.24536511 0.063930519 0.67772979
0.24898241 0.064043015 0.67774981
0.25247666 0.064093642 0.67732406
0.25575197 0.064109676 0.67629731
0.25936085 0.064185716 0.67611319
0.26293123 0.064272076 0.67577875
0.2664572 0.064340271 0.67522806
0.27036574 0.064481094 0.67564678
0.27424541 0.064628243 0.67587018
0.2774885 0.064623676 0.67450398
0.28133702 0.064758569 0.674546
0.28505388 0.064860418 0.6742388
0.2887817 0.064962402 0.67390633
0.29207969 0.064949028 0.67258531
0.2966719 0.065237574 0.67412919
0.29913887 0.065057591 0.67082906
0.30277878 0.065133817 0.67012817
0.3069557 0.065327503 0.67062944
0.31145701 0.065562733 0.6717571
0.31493047 0.065605782 0.67067724
0.31835994 0.065638885 0.6694712
0.32239714 0.065772563 0.66951877
0.32654288 0.065934129 0.66982043
0.32977852 0.065910049 0.66820961
0.33282468 0.065857522 0.66633391
0.33619481 0.065873548 0.66512871
0.33981943 0.065919757 0.66445655
0.34367278 0.06601689 0.66429353
0.3470999 0.066034533 0.6633271
0.35100114 0.066148981 0.66335219
0.35475218 0.06622225 0.66319031
0.35767213 0.066147685 0.66154599
0.36092377 0.066115163 0.66057515
0.36528382 0.066299453 0.66176724
-0.35399643 0.063956887 0.60481995
-0.35117099 0.064011075 0.60524237
-0.3491855 0.064204454 0.60718393
-0.34667286 0.064313129 0.60836738
-0.34382966 0.064354174 0.60913521
-0.34120178 0.064438753 0.61031443
-0.3377623 0.064384535 0.61022091
-0.33563432 0.064566471 0.61256796
-0.33407167 0.064872459 0.61613792
-0.33119902 0.064934246 0.61736917
-0.3287136 0.065063491 0.61948955
-0.32496917 0.064925246 0.61924404
-0.32282472 0.065140724 0.62218845
-0.32182655 0.065575674 0.62744296
-0.32169142 0.066204935 0.63459474
-0.32499409 0.067547701 0.64880937
-0.32754529 0.068763912 0.66185832
-0.32904133 0.069785513 0.67305475
-0.33204299 0.0711504 0.68763113
-0.33914745 0.073442101 0.71121222
-0.33500969 0.073302962 0.71150392
-0.33057168 0.073118523 0.71111488
-0.32643819 0.072973616 0.71131289
-0.32180312 0.072717652 0.71041948
-0.31697726 0.072417937 0.70906252
-0.31258255 0.072205633 0.70852673
-0.30835736 0.072057396 0.70835519
-0.30423346 0.071899846 0.70829499
-0.30054271 0.071847863 0.70927042
-0.29479814 0.071297944 0.70529437
-0.29197246 0.071443565 0.70814353
-0.28819975 0.071363971 0.70876169
-0.28435799 0.071259275 0.70910352
-0.27970377 0.070945948 0.70736116
-0.27556783 0.070781246 0.70681256
-0.27159607 0.070631221 0.70661384
-0.26791021 0.070552707 0.70712626
-0.26427537 0.070508942 0.70772916
-0.26039281 0.070367068 0.70755297
-0.25624597 0.070172183 0.70658273
-0.25248736 0.070056155 0.70661038
-0.24876034 0.069968872 0.70666951
-0.24507123 0.069889322 0.70680398
-0.2411675 0.069744825 0.70623213
-0.23724045 0.069559202 0.70547038
-0.23349343 0.069451436 0.70523947
-0.23017767 0.069463111 0.70621973
-0.22667331 0.069416717 0.70656294
-0.22298869 0.069312207 0.70631248
-0.21825296 0.068879254 0.70268565
-0.21509518 0.068953201 0.70397252
-0.21207629 0.069050722 0.70573139
-0.20837359 0.068924434 0.70517951
-0.20503908 0.068917103 0.70582026
-0.2016747 0.068921097 0.70632303
-0.1981422 0.068834975 0.7061317
-0.19476953 0.068832047 0.70651686
-0.19144325 0.068829745 0.70716113
-0.18747355 0.068605341 0.70524591
-0.18410511 0.068572849 0.70553142
-0.18066867 0.068534881 0.70550746
-0.17738627 0.068531036 0.70606381
-0.17384009 0.068453431 0.70558494
-0.17034592 0.068382986 0.70517868
-0.1666733 0.068221837 0.70406437
-0.16315597 0.068140306 0.70351881
-0.16024698 0.068303451 0.70547706
-0.15711471 0.068384059 0.70656139
-0.15357965 0.068274848 0.70591277
-0.15002337 0.068162322 0.70497733
-0.14654614 0.068079449 0.70432568
-0.14327262 0.068098038 0.70472318
-0.14001231 0.068099797 0.70515245
-0.13674957 0.068121426 0.70555902
-0.13347505 0.068135925 0.70586967
-0.13018854 0.068142638 0.70607746
-0.12692045 0.068169124 0.70646805
-0.12327587 0.067953028 0.70457143
-0.1200096 0.067972563 0.70486736
-0.1167253 0.067980215 0.70504004
-0.11346813 0.067993261 0.70547384
-0.11020117 0.06800811 0.70567721
-0.1068035 0.067951955 0.70512176
-0.1034309 0.067884043 0.70467079
-0.10012303 0.067875952 0.70461392
-0.096803285 0.067856029 0.70439047
-0.093465708 0.067812726 0.70415044
-0.090092339 0.067743182 0.70338988
-0.086932398 0.06782686 0.70444626
-0.083567806 0.067771189 0.70380777
-0.080336064 0.067816161 0.7044186
-0.077147238 0.067881741 0.70524365
-0.073811196 0.067857623 0.70486754
-0.070514642 0.067822583 0.70462531
-0.067319699 0.067906417 0.70557481
-0.063988909 0.067852549 0.7050935
-0.060595866 0.067766845 0.70403427
-0.057329778 0.067769125 0.7041145
-0.054094281 0.067834578 0.70482939
-0.050775312 0.067794241 0.70442355
-0.047465276 0.067727223 0.70371872
-0.044182133 0.067721441 0.70365018
-0.04090045 0.067692086 0.70353961
-0.037645627 0.06776645 0.70426083
-0.034341078 0.067710236 0.70362484
-0.031070068 0.067689136 0.70355672
-0.02780937 0.067762382 0.7042231
-0.02453018 0.067776777 0.7045024
-0.021249471 0.067743488 0.70403993
-0.017962446 0.067726195 0.70394653
-0.014690909 0.067794226 0.70449394
-0.011424127 0.067767307 0.70427901
-0.0081361663 0.067722254 0.70385396
-0.0048521888 0.067671858 0.70337331
-0.0015735191 0.067639768 0.70303977
0.001698547 0.067468867 0.70126349
0.0049646045 0.067441247 0.70097637
0.0082306936 0.067435816 0.70087689
0.011477019 0.067443602 0.70091492
0.014733463 0.067374445 0.70035493
0.017982356 0.067315817 0.69968104
0.02120292 0.067253344 0.69894594
0.024444019 0.067183562 0.6983363
0.027690412 0.067159422 0.69795686
0.030936688 0.067165181 0.69811082
0.034127433 0.067056663 0.69705552
0.03730407 0.066920981 0.69547427
0.040611576 0.067036919 0.69673032
0.043836337 0.067006059 0.69643939
0.047037445 0.066942833 0.69579071
0.050145533 0.066789582 0.6941849
0.053380385 0.066784173 0.69411576
0.056657307 0.066826567 0.69452202
0.059911199 0.066860214 0.69483739
0.063117787 0.066838145 0.6945523
0.066229396 0.06669911 0.69325227
0.069475546 0.066719592 0.69336683
0.072716922 0.066731989 0.6933971
0.075818956 0.066616483 0.69229907
0.078999497 0.066594437 0.69195014
0.082172625 0.066566445 0.69149685
0.085361443 0.066529833 0.6911971
0.088606104 0.066556066 0.69128573
0.09194611 0.066642202 0.6922183
0.095101446 0.066575289 0.69153988
0.098153308 0.066475779 0.69027942
0.10123716 0.066380829 0.68928838
0.10433309 0.066310331 0.68853009
0.1076805 0.066404752 0.68926215
0.11107482 0.066511996 0.69030577
0.11427721 0.066499084 0.69012368
0.117458 0.066472307 0.68975472
0.12095938 0.066642746 0.69120878
0.12433748 0.066727132 0.69197071
0.12747981 0.06667047 0.69126976
0.13035247 0.066487931 0.68924242
0.13344659 0.066422351 0.68840641
0.13664888 0.06644237 0.68821305
0.13985229 0.066429295 0.68789935
0.1429837 0.066391446 0.68732899
0.14612024 0.066355675 0.68673712
0.14922309 0.066304639 0.68598723
0.15264048 0.066412307 0.68665582
0.15585966 0.066408642 0.68635207
0.1590278 0.066391088 0.6859045
0.16253215 0.066501237 0.68677568
0.16571513 0.066506803 0.68629915
0.16901803 0.066536903 0.68629855
0.17261592 0.066678196 0.68744367
0.17540507 0.066527724 0.68531358
0.17888168 0.066616207 0.6858688
0.18228555 0.066673376 0.68610042
0.18554021 0.066695191 0.6856997
0.18866922 0.066657029 0.68490583
0.19191675 0.066674083 0.6844334
0.19492418 0.066586025 0.68310559
0.19794813 0.06653408 0.6819036
0.20169029 0.066691615 0.68304873
0.20512128 0.066770457 0.68313998
0.20817944 0.066719696 0.68190461
0.21129635 0.066688366 0.68084627
0.21448225 0.06666369 0.68005711
0.21783368 0.066704318 0.67968833
0.22124764 0.066761985 0.67949158
0.22484048 0.066870563 0.67978859
0.22812194 0.066884145 0.67909586
0.23138621 0.066891775 0.67831987
0.23472089 0.066940628 0.67773813
0.23800224 0.066951193 0.67696804
0.24151999 0.067026474 0.67680657
0.24508397 0.0671058 0.6767053
0.24862903 0.067199424 0.67647856
0.25261858 0.067393027 0.67745399
0.25582543 0.067391299 0.67623991
0.25943458 0.067466311 0.67599463
0.26300669 0.067557268 0.67563939
0.26679736 0.067701504 0.67581242
0.27110037 0.067942768 0.67716962
0.2744039 0.067952529 0.67594761
0.2774449 0.067897812 0.67406279
0.2811788 0.068017386 0.67390698
0.2854071 0.06824708 0.67481297
0.28893948 0.068307042 0.67398983
0.29201004 0.068235248 0.67208803
0.29507095 0.068184793 0.6701771
0.29851615 0.06822329 0.66909575
0.30264208 0.068419904 0.66956019
0.3076596 0.068806671 0.67185026
0.31079316 0.068750739 0.67000842
0.31416944 0.06877622 0.66873944
0.3177712 0.068827383 0.66791576
0.32154226 0.068940841 0.66744989
0.3262372 0.069230169 0.66889799
0.32968974 0.069252193 0.66775644
0.33301339 0.069233172 0.66641498
0.33649325 0.069273323 0.66544437
0.3400124 0.069306709 0.66460299
0.34300417 0.069236703 0.66276932
0.34574157 0.069125459 0.6605652
0.35185459 0.069665506 0.66477311
0.35408548 0.069446117 0.66175091
0.35693461 0.069358595 0.66001052
0.36072823 0.069439091 0.66008627
0.36321542 0.069280401 0.65791047
-0.3527908 0.066806711 0.6027807
-0.35214773 0.067267314 0.60689014
-0.34982219 0.067421608 0.60827887
-0.34517485 0.067136921 0.60570711
-0.34528351 0.067747407 0.61162174
-0.34184653 0.067694932 0.61140209
-0.33893463 0.067739718 0.61225379
-0.33714867 0.067993298 0.61520922
-0.33425942 0.068042904 0.61634189
-0.33126134 0.068078287 0.61736631
-0.32850963 0.068151243 0.61892587
-0.32581067 0.068244413 0.62066954
-0.32184368 0.068079017 0.62008035
-0.3235068 0.069099389 0.6304993
-0.3216559 0.069390446 0.6342836
-0.32288536 0.070362531 0.6443122
-0.32698673 0.071973242 0.66043639
-0.32971421 0.073310725 0.67408592
nan nan nan
-0.33893767 0.076950103 0.7104609
-0.33389997 0.07659182 0.70878667
-0.32932439 0.076362647 0.70807254
-0.3250711 0.076185182 0.7080276
-0.32128981 0.076115683 0.70895708
-0.31723353 0.075978808 0.70925462
-0.3133696 0.075909257 0.70993
-0.30854151 0.075583428 0.70842284
-0.30423832 0.075374357 0.7079519
-0.30014315 0.075218529 0.70797372
-0.29614028 0.075082459 0.70812875
-0.29220507 0.074954502 0.70835525
-0.28820938 0.074813895 0.70843363
-0.28345016 0.074463151 0.70648956
-0.2799184 0.074453577 0.70755398
-0.27561441 0.074218199 0.70664281
-0.2719346 0.07414075 0.70720655
-0.26827496 0.074060507 0.70774084
-0.2644015 0.073948085 0.70771933
-0.26055363 0.07381621 0.70770591
-0.25517288 0.073257238 0.70334291
-0.25194317 0.073308408 0.7048074
-0.24874362 0.073346302 0.70634282
-0.24501401 0.07324972 0.70636111
-0.24126266 0.073143192 0.7062574
-0.23731841 0.072966628 0.70545053
-0.23370135 0.072893485 0.70561719
-0.22999045 0.072780639 0.70537382
-0.22642596 0.072710797 0.70554471
-0.22233991 0.072475567 0.70406133
-0.21863334 0.072350554 0.70366681
-0.21507734 0.072271578 0.70367199
-0.21168244 0.072244421 0.70415759
-0.20843183 0.07228823 0.70511466
-0.20510307 0.072281934 0.70577997
-0.20175479 0.072267681 0.70636702
-0.19828838 0.072231703 0.70647556
-0.19491014 0.072203092 0.70687526
-0.19144061 0.07216081 0.70689744
-0.18750796 0.071915343 0.70514625
-0.18415689 0.071909741 0.70550251
-0.18085769 0.071931779 0.7061072
-0.17710666 0.071738563 0.70479405
-0.17374037 0.071718283 0.70495886
-0.17006631 0.071575306 0.7038942
-0.16636647 0.071413793 0.7026453
-0.16287489 0.071303353 0.70207053
-0.16009101 0.071535692 0.70465308
-0.15706459 0.071665294 0.70622486
-0.1537457 0.071662255 0.70646745
-0.14995055 0.071440786 0.7045334
-0.14647028 0.071327917 0.7038644
-0.14315733 0.071325272 0.70406437
-0.13996074 0.071379751 0.70480621
-0.13662533 0.071362242 0.70481497
-0.13325955 0.071325414 0.7046327
-0.13009034 0.07139238 0.70545352
-0.12683491 0.071402386 0.70592892
-0.1235027 0.071376652 0.70581138
-0.11997481 0.071243949 0.70461363
-0.11672248 0.071269527 0.70495909
-0.11352446 0.071328171 0.70563155
-0.11025978 0.071336828 0.7060045
-0.10681562 0.07124687 0.70518434
-0.10344785 0.071185924 0.70462924
-0.10012481 0.071159117 0.70460618
-0.096806578 0.071138337 0.70442659
-0.093373097 0.071025357 0.70329028
-0.090093561 0.071017742 0.70343453
-0.08681497 0.07103043 0.70352089
-0.083555564 0.071035273 0.70374477
-0.080279134 0.071045406 0.70378405
-0.077067882 0.071091101 0.70439088
-0.073809862 0.071136534 0.70475811
-0.07053452 0.071142949 0.70493233
-0.067299008 0.07119 0.70550919
-0.064024299 0.071196072 0.70563644
-0.060541473 0.070978165 0.70335072
-0.057285346 0.070989661 0.70350993
-0.054047566 0.071052514 0.70417804
-0.050764345 0.071026787 0.70394665
-0.047403693 0.070911087 0.70280188
-0.044161871 0.070965938 0.7033475
-0.040914174 0.071015939 0.70382327
-0.037537616 0.070806168 0.70191681
-0.03429956 0.070908785 0.70289272
-0.031026784 0.070899867 0.70274156
-0.027756482 0.070868529 0.70256031
-0.024517154 0.071002543 0.70380431
-0.021211851 0.070929147 0.70318466
-0.017969392 0.071013659 0.70389479
-0.014689788 0.071029447 0.70413768
-0.011394213 0.070954867 0.70344156
-0.0081207315 0.070824839 0.70219558
-0.0048487135 0.070855863 0.70254624
-0.0015715185 0.070804439 0.70182294
0.0017030204 0.070901699 0.70278692
0.0049626548 0.070637263 0.70037878
0.0082118828 0.070682384 0.70078313
0.011477241 0.070668861 0.70060605
0.014739106 0.07064458 0.70030093
0.017954441 0.070509255 0.69910771
0.021204524 0.070474491 0.69867724
0.02445781 0.070436783 0.69840878
0.027692912 0.070432596 0.69823861
0.030885357 0.070310742 0.69711441
0.034110095 0.07025183 0.69638062
0.03732226 0.070198342 0.69589126
0.040553782 0.070183478 0.69578493
0.043865077 0.070295498 0.69691497
0.047008187 0.070138179 0.69535345
0.050245814 0.07016018 0.69556969
0.053436402 0.07008718 0.69482285
0.0567648 0.070216991 0.69606501
0.06002716 0.070228137 0.69610935
0.06323193 0.070195802 0.69572264
0.066462785 0.070170641 0.69559813
0.069633491 0.070104711 0.694857
0.07274127 0.070002772 0.69371641
0.075938188 0.069948696 0.69328356
0.079015322 0.069829978 0.69195551
0.082071252 0.069679514 0.69052464
0.085449047 0.069821507 0.69175887
0.08878012 0.069910333 0.69265628
0.09198682 0.069879137 0.69236469
0.095225058 0.069907457 0.69242895
0.098375946 0.069849059 0.69184649
0.10157903 0.069827542 0.69160783
0.10462879 0.069723979 0.69032311
0.10785282 0.069730394 0.69031805
0.11101389 0.069694437 0.68989342
0.11413562 0.069621019 0.68907672
0.11726561 0.069579594 0.68857664
0.12047587 0.069593512 0.68839067
0.12422358 0.069898658 0.69127506
0.12733489 0.069825336 0.69039452
0.13031599 0.069695398 0.68895441
0.13352261 0.069687359 0.68871939
0.13654004 0.069592208 0.68758047
0.13975659 0.069587894 0.68733907
0.14299569 0.069603294 0.68727064
0.14586245 0.069460355 0.68542671
0.14936599 0.069587789 0.68644154
0.15279226 0.069692448 0.68720895
0.15646836 0.069892958 0.68892014
0.15956803 0.069831319 0.68802476
0.16215228 0.069558606 0.68502921
0.16560258 0.069680721 0.68570936
0.16884361 0.069680452 0.68537515
0.17241508 0.069821157 0.68640471
0.17573687 0.069855846 0.6863907
0.17892888 0.069858775 0.68582886
0.1822394 0.069892891 0.68576413
0.18553665 0.0699111 0.68554258
0.18864143 0.069877677 0.68457913
0.19151188 0.069737554 0.68276262
0.19472724 0.069753692 0.68226331
0.19795597 0.069743894 0.68167901
0.20162919 0.069916449 0.68266225
0.20460626 0.069816083 0.6811921
0.20794103 0.069859453 0.68086767
