# .PCD v0.7 - Point Cloud Data file format
VERSION 0.7
FIELDS x y z
SIZE 4 4 4
TYPE F F F
COUNT 1 1 1
WIDTH 1330
HEIGHT 1
VIEWPOINT 0 0 0 1 0 0 0
POINTS 1330
DATA ascii
-0.030389279 0.0097896494 0.45066857
-0.07024838 0.011879627 0.45020169
-0.03039168 0.011886401 0.45064905
-0.070277788 0.013988745 0.45042366
-0.03454278 0.013963223 0.4501175
-0.06821502 0.016093176 0.45074815
-0.068154424 0.01817915 0.4502643
-0.068214551 0.020301454 0.45066997
-0.068225265 0.022398166 0.45073527
-0.036627695 0.024441466 0.45006245
-0.0346082 0.024491107 0.45088795
-0.0639522 0.026567966 0.45025125
-0.036649756 0.026555192 0.45022303
-0.066076502 0.028674448 0.45038369
-0.066072091 0.030780738 0.45030928
-0.064017035 0.032899965 0.45069614
-0.061846949 0.034949716 0.45013231
-0.038764443 0.034958582 0.45046192
-0.061914477 0.037092973 0.45067334
-0.045083523 0.037068058 0.4506411
-0.040847316 0.037040807 0.45019251
-0.059726104 0.039145283 0.45002475
-0.051323928 0.039127734 0.45003831
-0.043018878 0.039202686 0.45096272
-0.061913393 0.041298822 0.45060739
-0.061960973 0.043432672 0.45085987
-0.03877452 0.043363135 0.45050251
-0.059792876 0.045482159 0.45036256
-0.059785232 0.047574494 0.45030591
-0.038756825 0.047520444 0.45020315
-0.038770109 0.049635176 0.45029664
-0.042975016 0.051759042 0.45041761
-0.049278617 0.053858463 0.45025897
-0.055569503 0.055946011 0.45006415
-0.038767193 0.055927575 0.45018572
-0.057768136 0.056049347 0.45075637
-0.055598494 0.058083184 0.45027381
-0.049349673 0.058142174 0.45090196
-0.038806263 0.058098041 0.45069829
-0.051386874 0.060160581 0.45015121
-0.045069445 0.060139015 0.45013735
-0.038781855 0.060141794 0.45031205
-0.045080345 0.062234566 0.45010671
-0.042962607 0.062222663 0.45001414
-0.055715058 0.064510696 0.45094463
-0.045071412 0.064337939 0.45000312
-0.038770441 0.064324953 0.45009363
-0.04299619 0.06646134 0.45021838
-0.040906921 0.068582945 0.45029715
-0.043040559 0.070732452 0.45049307
-0.040926758 0.070717074 0.45050174
-0.04511293 0.072787598 0.45015043
-0.043068141 0.072881311 0.45075276
-0.040985204 0.072913915 0.45097721
-0.053545825 0.074941725 0.45009902
-0.038850743 0.074959412 0.45058188
-0.055771116 0.075097047 0.4509477
-0.040975746 0.075005502 0.45084521
-0.055687994 0.077087007 0.45015162
-0.038837507 0.077045217 0.45040312
-0.036782157 0.07712207 0.45093858
-0.034660071 0.077103257 0.45083287
-0.057915982 0.079366863 0.45093337
-0.055709388 0.079221442 0.45020044
-0.036726844 0.079122275 0.45025378
-0.034685668 0.079237483 0.45098379
-0.057886373 0.081421196 0.45055598
-0.034665149 0.081315219 0.45071703
-0.034651779 0.083377339 0.45036095
-0.05790747 0.085683309 0.4505074
-0.03253926 0.085448861 0.4501802
-0.057932895 0.087824188 0.45054373
-0.032585617 0.087658115 0.45062256
-0.057892106 0.089866169 0.45003667
-0.034712922 0.089856796 0.45088807
-0.032600231 0.091919422 0.45059231
-0.030487431 0.091884166 0.45050526
-0.028400952 0.091940872 0.45077193
-0.060103804 0.092115775 0.45048842
-0.024200551 0.094085097 0.45095524
-0.060153734 0.096427485 0.45054325
-0.060233817 0.098661289 0.45090127
-0.060271345 0.1008457 0.45095423
-0.032625057 0.1004304 0.45036975
-0.060274899 0.1029625 0.45072418
-0.058072306 0.1028198 0.45024505
-0.058101114 0.10498299 0.45021963
-0.055973276 0.10494102 0.4501735
-0.058212455 0.10730249 0.45081869
-0.056007341 0.10712098 0.4501926
-0.053900808 0.10713302 0.45043948
-0.056050491 0.10930914 0.45028415
-0.053879548 0.1092103 0.45000163
-0.091884188 -0.059862226 0.45135522
-0.015712593 -0.053198151 0.45101935
-0.017845206 -0.044869535 0.45175964
-0.017822558 -0.042735364 0.45139402
-0.083163098 -0.030182421 0.45140266
-0.022015451 -0.030127864 0.45130983
-0.022011602 -0.028004723 0.4510721
-0.083108552 -0.023847442 0.45116669
-0.081036031 -0.017540993 0.45152646
-0.024149984 -0.013332229 0.45185894
-0.024150092 -0.011232279 0.45191619
-0.024143305 -0.0091106808 0.4515861
-0.078926884 -0.0070250523 0.45164648
-0.076808639 -0.0070194681 0.45163709
-0.028325092 -0.0028007762 0.4511871
-0.076826997 -0.00069931732 0.45180094
-0.076784045 0.0013978527 0.45154837
-0.074592352 0.0013952928 0.45107025
-0.02834647 0.0013945412 0.45152763
-0.076781914 0.0035085129 0.45152184
-0.074665882 0.0035056369 0.45150089
-0.028376533 0.0056117252 0.45197883
-0.028333953 0.0077048461 0.45149294
-0.072495423 0.0098045943 0.45109501
-0.072605669 0.011930968 0.45182601
-0.072566442 0.014032956 0.45152605
-0.032582775 0.014029272 0.45196667
-0.030472543 0.014025946 0.45199788
-0.070446141 0.016132277 0.45152235
-0.032538258 0.016117083 0.45147181
-0.030458899 0.016121235 0.45172638
-0.032541245 0.018205956 0.45143026
-0.030475976 0.01823302 0.45189664
-0.032517783 0.020301158 0.4511998
-0.068348847 0.024550874 0.45153227
-0.066184036 0.02452809 0.45116356
-0.066237688 0.02664574 0.45151278
-0.034645878 0.026617669 0.45144841
-0.032573134 0.026645711 0.45184147
-0.068420321 0.028779864 0.4519515
-0.034633979 0.028723223 0.45133528
-0.03466548 0.0308538 0.4517878
-0.068351477 0.032974139 0.45149419
-0.066181317 0.032937203 0.45110434
-0.03673571 0.032912534 0.4512037
-0.070534497 0.035106275 0.4518463
-0.068353727 0.035064302 0.45144764
-0.0662264 0.035061039 0.45135325
-0.06411805 0.035052132 0.451352
-0.036744289 0.035025582 0.45132688
-0.064110108 0.037148699 0.45122689
-0.053587735 0.037149526 0.4513897
-0.03886418 0.037156936 0.45161566
-0.062103931 0.039311063 0.45197237
-0.040971369 0.039249182 0.45153227
-0.051467452 0.041335408 0.45123792
-0.040961493 0.041336522 0.4513959
-0.062003247 0.045563102 0.45117527
-0.036725998 0.045511924 0.45102468
-0.059913535 0.05187567 0.45114079
-0.038860742 0.051874638 0.45143601
-0.057782296 0.053967413 0.45100936
-0.038900681 0.054023303 0.45182493
-0.057816096 0.058193889 0.45108309
-0.057854082 0.060333543 0.45133188
-0.036785718 0.060319088 0.45159805
-0.057916228 0.062518105 0.45175499
-0.057953954 0.064667962 0.45198748
-0.03676435 0.064498127 0.45127752
-0.057947669 0.06675785 0.45184848
-0.055773858 0.066673324 0.45135304
-0.036816802 0.066684134 0.45179933
-0.059966393 0.068771765 0.45102593
-0.057854306 0.068759881 0.45103058
-0.038859654 0.068678595 0.45101508
-0.036825743 0.068796419 0.45177296
-0.060019638 0.070946358 0.45132855
-0.038934465 0.070908338 0.45172381
-0.06006838 0.073107138 0.45158297
-0.05788435 0.073009066 0.45107064
-0.055796597 0.073027492 0.45126379
-0.038939301 0.073028713 0.45178282
-0.057996366 0.07525719 0.45182496
-0.036807097 0.075085357 0.45142284
-0.034727771 0.075131387 0.45168525
-0.03263557 0.075168356 0.45197743
-0.057983935 0.077349499 0.45159537
-0.032614022 0.077211276 0.45153672
-0.060125157 0.07948941 0.45160204
-0.060134627 0.081634484 0.45162421
-0.032624777 0.081463672 0.45153868
-0.060132291 0.083732978 0.45145148
-0.032594014 0.083506368 0.45113653
-0.060206596 0.085956842 0.45182553
-0.030524733 0.085685678 0.45143434
-0.060133763 0.087958537 0.45110929
-0.030497294 0.087739453 0.45105076
-0.032626927 0.089899994 0.45118904
-0.030514175 0.089882463 0.45110053
-0.028412094 0.089877859 0.4511334
-0.062320821 0.090178058 0.45141482
-0.060169782 0.090105981 0.45118129
-0.026320633 0.092058845 0.451408
-0.026318872 0.094144918 0.45119676
-0.028430266 0.096262403 0.45106256
-0.026343508 0.096343584 0.45142362
-0.028447079 0.098428302 0.45110148
-0.030616317 0.10285723 0.45165089
-0.030618064 0.1049661 0.45141798
-0.030666929 0.10722772 0.4518649
-0.058283135 0.10954146 0.45110178
-0.022160705 -0.10003449 0.45222834
-0.013704684 -0.087326862 0.45297289
-0.090328753 -0.085732132 0.45238844
-0.0073568081 -0.082960643 0.45244369
-0.094475888 -0.07290671 0.45258152
-0.013674877 -0.061857883 0.45281979
-0.015768502 -0.05552407 0.4527733
-0.017864177 -0.049157768 0.45251283
-0.017877568 -0.047071107 0.45272228
-0.022087712 -0.032320436 0.45263866
-0.083408602 -0.028168879 0.45279962
-0.083389342 -0.026046857 0.45273125
-0.022063075 -0.025980169 0.45225152
-0.081260815 -0.015479589 0.45278499
-0.024169775 -0.015444873 0.45216009
-0.026278244 -0.0049211234 0.45216274
-0.0263234 -0.0028109681 0.45295358
-0.026317114 0.0013982265 0.45285925
-0.026298223 0.003499974 0.45252034
-0.074823074 0.007725839 0.45239547
-0.028394457 0.0098245926 0.45241556
-0.028412197 0.011935337 0.45264283
-0.028378023 0.014023057 0.45204309
-0.028393589 0.016141847 0.45244238
-0.028422376 0.018264601 0.45281795
-0.070609823 0.022487115 0.45248497
-0.032591756 0.022452714 0.45212924
-0.032594875 0.024557022 0.45225388
-0.032612316 0.028783733 0.45245257
-0.068457745 0.030899705 0.45215124
-0.032627206 0.030919481 0.45271286
-0.034731399 0.03300941 0.45250803
-0.068530135 0.037264131 0.45253712
-0.066345103 0.037229929 0.4520897
-0.064217351 0.039324742 0.45201075
-0.038901005 0.039290152 0.45203829
-0.036880732 0.039372865 0.45299673
-0.064274482 0.041468311 0.45231542
-0.038912471 0.041401867 0.45213842
-0.036843643 0.041435182 0.45253119
-0.064238481 0.043548904 0.45207712
-0.036852982 0.043563649 0.452622
-0.06430766 0.045703724 0.45255095
-0.064371653 0.047864661 0.45288953
-0.062188931 0.047797758 0.45240417
-0.062214095 0.049942382 0.4525809
-0.036799755 0.049818207 0.45201182
-0.062260445 0.052080289 0.45288366
-0.036874324 0.052031599 0.45286193
-0.034777001 0.052039899 0.45298016
-0.060052358 0.054108802 0.45215893
-0.036819171 0.05827143 0.45211652
-0.060130909 0.060524475 0.45259824
-0.06011492 0.062617362 0.45240837
-0.036854759 0.06252446 0.45233762
-0.032618962 0.064609021 0.45217931
-0.06011375 0.066825897 0.45223215
-0.032683939 0.066838861 0.45298004
-0.036899455 0.07104899 0.45269877
-0.034758143 0.071001925 0.45238847
-0.036856141 0.073067404 0.45201695
-0.034800343 0.073180392 0.45279753
-0.06019317 0.075368509 0.45239457
-0.062376134 0.077567056 0.45265836
-0.06015962 0.077436812 0.45200172
-0.030597402 0.077442206 0.45294556
-0.03058476 0.079511948 0.45261508
-0.062409136 0.081847355 0.45268938
-0.03056943 0.081612222 0.45243883
-0.062429138 0.083980873 0.45265734
-0.030564815 0.083691046 0.45219889
-0.062483031 0.08827734 0.45267883
-0.028493166 0.088031337 0.45260572
-0.062538348 0.092611976 0.45276964
-0.024266772 0.09224195 0.45234954
-0.062483516 0.09465 0.45216611
-0.028522726 0.10079257 0.45207244
-0.02852363 0.10293741 0.45208248
-0.062810771 0.11003723 0.45282015
-0.06065524 0.11000844 0.45287049
-0.017970601 -0.098080687 0.4531877
-0.015823118 -0.089480996 0.45307422
-0.011585844 -0.070411667 0.453473
-0.090170242 -0.053763814 0.45382231
-0.015787398 -0.051375233 0.4534035
-0.015804423 -0.049294747 0.45372909
-0.087974496 -0.045242 0.45390868
-0.085705556 -0.032452032 0.45356587
-0.022110892 -0.023913033 0.45307228
-0.022118095 -0.021813018 0.45331696
-0.022133678 -0.019719094 0.45373347
-0.022147363 -0.015500379 0.45389605
-0.079210542 -0.013389083 0.45328999
-0.022136267 -0.013384398 0.453738
-0.022130668 -0.011266271 0.45339462
-0.022143662 -0.0091652861 0.45370242
-0.02424787 -0.007042835 0.45356965
-0.079328828 -0.0028271442 0.45398873
-0.028440582 -0.00070651225 0.4530406
-0.026380064 -0.00070772396 0.45394248
-0.077072144 0.0056264214 0.45321456
-0.026349982 0.0077345031 0.45335555
-0.074930117 0.0098551689 0.45308539
-0.026330814 0.009839409 0.45322257
-0.026354361 0.011956558 0.45357245
-0.072931781 0.016211741 0.45381644
-0.070720538 0.018296557 0.45321101
-0.070752323 0.020425228 0.45340645
-0.030543568 0.020390121 0.45302132
-0.028474569 0.020408396 0.45356616
-0.030576799 0.022509079 0.453417
-0.030573133 0.024627972 0.4534575
-0.068574235 0.026737789 0.45300174
-0.030587753 0.026752124 0.45354927
-0.032678869 0.033068232 0.45327672
-0.034784827 0.035174418 0.45323238
-0.032686535 0.035191249 0.45342305
-0.030608937 0.03521838 0.45391187
-0.036905456 0.037295405 0.45331046
-0.03479198 0.037284084 0.45333993
-0.032662444 0.037266899 0.45311487
-0.030567965 0.037288185 0.45334363
-0.034791313 0.039401371 0.45333165
-0.032666333 0.039388891 0.45318103
-0.030578498 0.039420638 0.45353925
-0.066490516 0.041530266 0.4530026
-0.034787823 0.041502971 0.45328659
-0.032704778 0.041543156 0.45372653
-0.066591196 0.043705307 0.45368326
-0.034797285 0.04363602 0.45339635
-0.036896929 0.047833487 0.45308593
-0.034822494 0.047891401 0.45365584
-0.034795281 0.049952786 0.4532598
-0.064470939 0.050054986 0.45356089
-0.06452065 0.052213572 0.45386943
-0.032728426 0.052147385 0.45394787
-0.064541876 0.054339185 0.45397741
-0.062316258 0.054245517 0.45325518
-0.036933403 0.054218408 0.45350754
-0.034822181 0.054211333 0.45349917
-0.032711465 0.054225542 0.45365486
-0.064552546 0.056472901 0.45399699
-0.060176946 0.056340344 0.45305565
-0.036930535 0.056319065 0.45339227
-0.034811664 0.056299832 0.45329264
-0.032695446 0.056318928 0.45337504
-0.062416509 0.05856834 0.45387289
-0.034787379 0.058389109 0.45307487
-0.062371757 0.060638815 0.45338222
-0.060213242 0.0648342 0.4530645
-0.034791764 0.064737327 0.45302123
-0.030574746 0.064747348 0.45309144
-0.034814082 0.066880055 0.45319998
-0.030584076 0.066870265 0.45314309
-0.034819789 0.068994246 0.45314831
-0.032756962 0.073348023 0.45380133
-0.030630047 0.075421922 0.45357221
-0.028547896 0.081837304 0.45373532
-0.062569313 0.086283378 0.45349601
-0.028530339 0.086042531 0.45336711
-0.024336064 0.09673515 0.45330521
-0.062658787 0.097028352 0.45319861
-0.026450764 0.098843075 0.45306501
-0.026474427 0.10104288 0.45325923
-0.02651538 0.1033161 0.4537487
-0.060705099 0.1058253 0.45368239
-0.028634625 0.10545402 0.45359752
-0.028643534 0.10760563 0.45347983
-0.060741175 0.10800504 0.45367858
-0.011598459 -0.076873183 0.4540551
-0.011624758 -0.074885398 0.45488551
-0.011614077 -0.072749674 0.45479095
-0.094843201 -0.071060725 0.45453343
-0.092514396 -0.058133561 0.45449749
-0.090223938 -0.051674355 0.45419115
-0.020064879 -0.032457482 0.45465541
-0.085945152 -0.0304277 0.45490047
-0.020086344 -0.026127558 0.45491463
-0.020069694 -0.023991838 0.45466271
-0.020038428 -0.021857578 0.45405158
-0.024324084 -0.017658617 0.45497727
-0.022193236 -0.017646126 0.45475277
-0.079409979 -0.01129399 0.45440704
-0.079414144 -0.0091821291 0.45447311
-0.024301242 0.0014033307 0.45462358
-0.024295714 0.0035283656 0.45450625
-0.026391014 0.0056363768 0.45408928
-0.024322024 0.0077596856 0.45495674
-0.024306113 0.0098669752 0.45461741
-0.075162545 0.011995072 0.45444867
-0.024306744 0.012000412 0.45483369
-0.075164318 0.01412144 0.45448813
-0.02639514 0.014100562 0.45421869
-0.02643057 0.016233934 0.45475882
-0.073031098 0.018359696 0.45443758
-0.028548848 0.022588408 0.45487368
-0.07313171 0.024743387 0.45494315
-0.070965573 0.024728935 0.45475641
-0.070913114 0.026824389 0.45438379
-0.07090544 0.028935831 0.4542982
-0.030614268 0.028888738 0.45402351
-0.070957772 0.031073932 0.4545829
-0.030657019 0.031047376 0.45472488
-0.0306821 0.033179641 0.45495734
-0.066633433 0.039502099 0.45406327
-0.030652927 0.041629333 0.45465487
-0.068812601 0.043780874 0.45430404
-0.032729555 0.043699887 0.45406851
-0.066735454 0.045922894 0.45456481
-0.034860712 0.045828912 0.45419526
-0.032744035 0.045813721 0.4540599
-0.032765254 0.047980193 0.45453227
-0.032731619 0.050047792 0.45402193
-0.066720918 0.05227647 0.45436516
-0.030677196 0.052239437 0.45476738
-0.06671197 0.054393962 0.45425659
-0.030683162 0.054375045 0.45482531
-0.06250561 0.056537241 0.45458367
-0.060316499 0.058583103 0.45405075
-0.032747649 0.058519967 0.45402697
-0.034866322 0.060634032 0.45401925
-0.062527314 0.062908828 0.4544358
-0.034894817 0.062799439 0.45429233
-0.032798484 0.062831007 0.45457351
-0.062610246 0.065115795 0.45496118
-0.062533252 0.067159586 0.45441303
-0.028554825 0.067053974 0.45443329
-0.06476897 0.069407485 0.45499986
-0.062603682 0.069362842 0.45481905
-0.032785136 0.069155261 0.45426816
-0.030659992 0.069146574 0.45416692
-0.028582202 0.069233075 0.45476925
-0.032798056 0.071294613 0.45431849
-0.030684918 0.07130269 0.45442098
-0.028580131 0.07137993 0.4548746
-0.062609822 0.073616885 0.45462331
-0.030661797 0.073396944 0.45417175
-0.062643401 0.075776942 0.4547326
-0.028571885 0.079792559 0.45425913
-0.064816095 0.082198136 0.45456678
-0.064791068 0.084295303 0.45422086
-0.02859929 0.084143832 0.45461985
-0.02649598 0.084167853 0.45480052
-0.064824484 0.08647541 0.45437005
-0.064929366 0.088738702 0.45490551
-0.026498973 0.090564132 0.45463452
-0.062874936 0.099507801 0.45462868
-0.024415845 0.099170707 0.45461538
-0.024440713 0.10139478 0.45488781
-0.062995121 0.10397141 0.45499355
-0.024442628 0.10352842 0.45473263
-0.026570646 0.10569751 0.45469767
-0.026588509 0.10789706 0.45477638
-0.015911097 -0.092131078 0.45558825
-0.09099786 -0.088515446 0.45555219
-0.011627366 -0.068583176 0.45540747
-0.011631154 -0.066443674 0.45531473
-0.013734901 -0.060041141 0.45508772
-0.013756691 -0.057985641 0.4556115
-0.0905376 -0.049726494 0.45585471
-0.090488821 -0.047560435 0.45567942
-0.015858499 -0.047365725 0.45550528
-0.015878819 -0.045286112 0.45589694
-0.017992238 -0.04099939 0.45553327
-0.01799435 -0.036770456 0.45559627
-0.020107828 -0.034634024 0.45547509
-0.020103553 -0.030392336 0.45536917
-0.086021125 -0.028333703 0.45528013
-0.020118402 -0.028308069 0.45583108
-0.083878495 -0.021956386 0.45538282
-0.083934925 -0.01984431 0.45571142
-0.020106824 -0.019800488 0.45538336
-0.081753448 -0.013453635 0.45558646
-0.02010389 -0.013435079 0.45555359
-0.022229366 -0.0070710825 0.45550019
-0.024359111 -0.0049581723 0.45567834
-0.024359357 -0.0028412286 0.45571077
-0.024322696 -0.00070923811 0.45502493
-0.02224452 0.0014068232 0.45586643
-0.02225168 0.00353909 0.45599923
-0.024327103 0.0056471149 0.45507956
-0.077470146 0.007785094 0.45552671
-0.077505365 0.0099069132 0.45577446
-0.024366794 0.014148911 0.45590159
-0.075297691 0.016260019 0.45522416
-0.075329266 0.018398782 0.4554157
-0.026446804 0.018369319 0.45519421
-0.073218897 0.020521022 0.45552158
-0.026481237 0.020512849 0.4557032
-0.073184133 0.022628749 0.45529434
-0.026498582 0.022633335 0.45590401
-0.02859427 0.024744507 0.45548579
-0.073195957 0.026884569 0.45531774
-0.02860694 0.026875723 0.45578435
-0.02858483 0.02897545 0.45530653
-0.073225074 0.029021962 0.45554745
-0.028592654 0.035339233 0.45542914
-0.071154676 0.037547968 0.45583063
-0.02858554 0.037457395 0.45537069
-0.068950959 0.039624225 0.4553189
-0.028589662 0.039592139 0.45547736
-0.068969719 0.04174595 0.4553526
-0.030740326 0.043862738 0.45575508
-0.030737927 0.0459808 0.45571709
-0.030739259 0.048106309 0.4557344
-0.066864997 0.050261792 0.45539415
-0.03072658 0.050211046 0.45552996
-0.069068007 0.052445244 0.45576674
-0.028613048 0.052345049 0.4557049
-0.028614216 0.05447787 0.45569435
-0.030708728 0.056535482 0.45515972
-0.064856514 0.058848396 0.45597941
-0.030713111 0.058660917 0.45516604
-0.064778842 0.06091335 0.45536339
-0.032833401 0.060777619 0.45514372
-0.030745212 0.060871586 0.45577738
-0.064800099 0.063057169 0.45542863
-0.066973157 0.065227143 0.45563895
-0.06482096 0.065218106 0.45557645
-0.028644811 0.065147936 0.45593697
-0.064786091 0.067296408 0.45523292
-0.066986449 0.071620911 0.4553856
-0.064838044 0.071600296 0.45537221
-0.062660411 0.071542978 0.45511097
-0.06493549 0.073831737 0.45592913
-0.028610276 0.07356324 0.4552404
-0.064941272 0.075964198 0.45582792
-0.028637165 0.07574445 0.45555404
-0.02862072 0.077828027 0.45516405
-0.064921841 0.078085713 0.45563534
-0.064914122 0.080205634 0.4554249
-0.062802598 0.080212936 0.45558953
-0.026550228 0.080103569 0.45599589
-0.067062169 0.082358047 0.4553093
-0.026542066 0.08218839 0.4557308
-0.026541486 0.086426333 0.45544225
-0.026513388 0.088496052 0.45504966
-0.064988099 0.090946145 0.45510259
-0.024452232 0.090818517 0.45595384
-0.065020077 0.093121 0.45511189
-0.065191939 0.0976514 0.45595559
-0.065170892 0.099746674 0.45556393
-0.062981516 0.10180456 0.45514739
-0.024471406 0.10576673 0.45506248
-0.022378365 0.10594332 0.45586088
-0.063188553 0.10855617 0.45584071
-0.024507437 0.10805877 0.45551214
-0.011656703 -0.064506054 0.45662463
-0.088472538 -0.041222591 0.45658329
-0.018008158 -0.038938444 0.45611811
-0.086156748 -0.026245676 0.45605052
-0.020163657 -0.017733965 0.45676824
-0.081825912 -0.0092206169 0.45601043
-0.022269804 -0.00496434 0.45635667
-0.024414647 0.016299712 0.45672712
-0.024430159 0.01843443 0.45693344
-0.075552143 0.020578129 0.45676377
-0.075501345 0.024827782 0.4564155
-0.02652524 0.024792297 0.45649126
-0.028632905 0.031149471 0.45615518
-0.071290754 0.039736528 0.45662323
-0.07123787 0.041845523 0.45628178
-0.028664434 0.04181866 0.45670971
-0.028667795 0.043941393 0.4565669
-0.067034952 0.048258368 0.45658532
-0.069185287 0.050400347 0.45659456
-0.028680317 0.050348643 0.45679131
-0.067070954 0.056810204 0.45663881
-0.067065008 0.061071482 0.45645961
-0.067011483 0.063149802 0.45600462
-0.030767694 0.063028015 0.45603779
-0.028697025 0.063133456 0.45683971
-0.067135505 0.067519858 0.45663813
-0.067104578 0.0696242 0.45630828
-0.026529524 0.069433734 0.45612165
-0.026528958 0.071557634 0.45604408
-0.067168646 0.073942557 0.4564901
-0.026575793 0.075934872 0.45665643
-0.067170396 0.078220315 0.45628759
-0.026599569 0.078126498 0.45695427
-0.024480518 0.084545828 0.45687976
-0.024461415 0.086601645 0.45640483
-0.024473341 0.088769153 0.4564946
-0.06742277 0.093491748 0.45683274
-0.022353763 0.093102708 0.45661473
-0.067477606 0.095709652 0.4569675
-0.065176368 0.095488615 0.45607659
-0.022376772 0.09532591 0.45694825
-0.067428611 0.097788759 0.45649627
-0.067447692 0.099961452 0.45637393
-0.065282829 0.10205033 0.4560869
-0.022393836 0.10388966 0.45635661
-0.065411843 0.10441347 0.45681435
-0.065420419 0.10656825 0.4565993
-0.063194185 0.10643914 0.45614922
-0.065489382 0.10882581 0.4567906
-0.022431929 0.1083445 0.45675653
-0.09137179 -0.09102387 0.45716339
-0.0074291313 -0.081692092 0.45726019
-0.095515497 -0.069410719 0.45786542
-0.011684676 -0.062482711 0.45745012
-0.011690856 -0.060428612 0.45797411
-0.013815465 -0.051871303 0.45785183
-0.015922029 -0.043291084 0.45734799
-0.01593061 -0.041172776 0.45737401
-0.088644765 -0.039169282 0.45758399
-0.088693887 -0.03705097 0.45786148
-0.088669874 -0.034902886 0.45774719
-0.018056547 -0.034782317 0.45732513
-0.088644207 -0.032761987 0.45769796
-0.018073712 -0.032698136 0.45791408
-0.018063404 -0.026262593 0.45736369
-0.086517483 -0.024214638 0.45799851
-0.018062886 -0.02414914 0.45746252
-0.018056698 -0.022014905 0.45741767
-0.020184087 -0.015613313 0.45730096
-0.020205786 -0.011376251 0.45791855
-0.08211951 -0.0071093612 0.45761016
-0.022320749 -0.0028512417 0.45741463
-0.077767253 0.012078563 0.45725787
-0.075715385 0.02275289 0.45773715
-0.026574483 0.02696652 0.45721272
-0.075754181 0.029177705 0.45787427
-0.026558781 0.029078856 0.45705745
-0.073514313 0.031267315 0.4572933
-0.071452849 0.033429727 0.45779446
-0.028702799 0.033358064 0.4573378
-0.026608685 0.041930117 0.4578999
-0.071442045 0.044088811 0.45748174
-0.02660623 0.044034507 0.45766088
-0.069250405 0.046190575 0.45718318
-0.028724264 0.04615847 0.45747924
-0.02657463 0.046126369 0.45714828
-0.028700305 0.048250806 0.45711067
-0.02660354 0.05043412 0.45769349
-0.069331951 0.054785889 0.45745435
-0.026604107 0.054715969 0.45769495
-0.02870837 0.056782845 0.45716456
-0.06716153 0.05901514 0.45719317
-0.028754072 0.059004426 0.45784897
-0.02874775 0.061124273 0.45770487
-0.026626769 0.063288048 0.45798326
-0.026591783 0.065342635 0.45732784
-0.026622908 0.067547493 0.45780933
-0.06951309 0.072045267 0.45795092
-0.026643453 0.073989108 0.45791575
-0.02446666 0.073852807 0.4570978
-0.067329809 0.076269925 0.45753375
-0.024505271 0.082493976 0.45746014
-0.067408755 0.087060064 0.45729142
-0.067446157 0.089243315 0.45733786
-0.022407588 0.091185041 0.45783648
-0.02242732 0.097690433 0.45782915
-0.022441808 0.099892534 0.45797327
-0.022431336 0.10198666 0.4575935
-0.016037283 -0.094936147 0.45877221
-0.0095698284 -0.0797249 0.45825845
-0.0138366 -0.047675036 0.45855024
-0.091047525 -0.045717299 0.45856357
-0.088852294 -0.043545783 0.45850474
-0.018103039 -0.030592734 0.45845592
-0.018103404 -0.028474268 0.45860553
-0.082352594 -0.011414929 0.45890293
-0.020244284 -0.0092605352 0.45851552
-0.020237328 -0.0071145762 0.45839998
-0.022394003 -0.0007151498 0.45892984
-0.022382876 0.0056903246 0.45867378
-0.02236923 0.014226046 0.45848513
-0.024523325 0.020649005 0.45884025
-0.075772561 0.027050478 0.4580273
-0.026631374 0.031278178 0.45816633
-0.073758446 0.033509765 0.45875821
-0.026653927 0.033457991 0.45864156
-0.073787995 0.035663486 0.45887399
-0.026636712 0.039828494 0.458323
-0.071606524 0.046328612 0.45850381
-0.069434717 0.048442166 0.4582805
-0.026647992 0.048391964 0.45844129
-0.071576163 0.052720845 0.45809603
-0.026638504 0.052642424 0.45829794
-0.071618997 0.054897439 0.45831022
-0.069531299 0.057077292 0.45870113
-0.069514342 0.059198476 0.45852068
-0.026680131 0.061286457 0.45894071
-0.024529966 0.063362002 0.45852923
-0.024505613 0.06544257 0.45804143
-0.024535311 0.067656264 0.45856383
-0.024541611 0.069811031 0.45863464
-0.024533857 0.071928158 0.45842856
-0.024555132 0.076265849 0.45867509
-0.024534361 0.078333803 0.45821151
-0.067537248 0.080791958 0.45861569
-0.024531014 0.080457747 0.45804492
-0.022413105 0.084796719 0.45827252
-0.06975878 0.085179135 0.45875216
-0.067549281 0.085105188 0.45843786
-0.022414831 0.086937621 0.45821443
-0.022414699 0.089074187 0.45810398
-0.067574702 0.09157373 0.45808473
-0.0074625574 -0.086397283 0.45942524
-0.013853913 -0.05629123 0.45909974
-0.09119913 -0.041502424 0.45943984
-0.016013345 -0.039258067 0.45994666
-0.084625214 -0.013566854 0.45953259
-0.084691845 -0.01143597 0.45995152
-0.018122938 -0.011403985 0.45911908
-0.084613673 -0.0050049545 0.45947191
-0.080243327 -0.00071137701 0.45923653
-0.080299862 0.0014237564 0.45956007
-0.020272437 0.0014169663 0.4592514
-0.0803205 0.0078611551 0.45960698
-0.022440378 0.0078407833 0.45980996
-0.080350883 0.010002894 0.45981964
-0.080283642 0.012130106 0.45939216
-0.022427054 0.012119317 0.45945269
-0.08028198 0.014282162 0.45940715
-0.078140616 0.014273364 0.45947993
-0.078154087 0.016425027 0.45948794
-0.024577202 0.022832742 0.45974985
-0.024562137 0.03137479 0.45948792
-0.076020122 0.0335714 0.45945507
-0.026698355 0.035658855 0.45949349
-0.024585124 0.035679441 0.45987153
-0.026692411 0.03777786 0.45922211
-0.024586363 0.039961655 0.45981997
-0.07390976 0.040005941 0.45955503
-0.073885985 0.042132977 0.45938489
-0.024586003 0.042115174 0.45987961
-0.024559272 0.044209514 0.45944604
-0.07400012 0.046494763 0.45996094
-0.024559317 0.046325561 0.45923528
-0.071727455 0.04855046 0.45924684
-0.073899716 0.052856945 0.45919824
-0.071746595 0.057131547 0.45905247
-0.026681745 0.057011548 0.4590193
-0.026732806 0.059262913 0.45987228
-0.069761857 0.074444249 0.4594487
-0.069868095 0.076703802 0.45999256
-0.022465538 0.076422691 0.45964658
-0.022471894 0.078587502 0.45971197
-0.022453697 0.080668047 0.45927501
-0.022461515 0.082829513 0.4593558
-0.069907114 0.087502971 0.45952773
-0.070028305 0.094124071 0.45975989
-0.068008952 0.10294346 0.45990324
-0.016109886 -0.09753672 0.46082902
-0.10060557 -0.078618146 0.46037981
-0.095927879 -0.067559533 0.46000755
-0.013896514 -0.054298297 0.46029726
-0.013890057 -0.049978767 0.46009576
-0.013878808 -0.045702647 0.46016085
-0.091444045 -0.043757264 0.46061718
-0.016058197 -0.037200782 0.4609988
-0.016030872 -0.03500849 0.4603835
-0.016030664 -0.032850184 0.46012792
-0.0160212 -0.030704951 0.46001112
-0.086951889 -0.022199567 0.46033689
-0.084775142 -0.017898561 0.46035901
-0.084727705 -0.015742697 0.46009529
-0.084872037 -0.0071668448 0.46092394
-0.082581267 -0.0050088167 0.46021181
-0.020335846 -0.0050100768 0.46065965
-0.01819941 -0.00501082 0.46082658
-0.082677618 -0.0028716435 0.46076304
-0.022454761 0.0099970801 0.46006247
-0.022475269 0.016433986 0.46058813
-0.022472817 0.020725714 0.46065754
-0.078283779 0.022894582 0.46023104
-0.02247458 0.022869118 0.46059501
-0.024606042 0.02498633 0.46017665
-0.078356713 0.025062153 0.46064377
-0.022489512 0.025027514 0.46078825
-0.024594294 0.02712979 0.46010768
-0.024610376 0.029290013 0.46026757
-0.076129727 0.031467523 0.46008772
-0.024638725 0.033604681 0.46077949
-0.022461463 0.033572346 0.46025553
-0.074021459 0.03791726 0.46033213
-0.076287426 0.042288054 0.4609026
-0.024630802 0.048610441 0.46062428
-0.071905218 0.050821412 0.46033931
-0.024619292 0.050739244 0.46044728
-0.071969688 0.059453841 0.46040529
-0.0697852 0.061588671 0.46022412
-0.024633771 0.061492141 0.46048823
-0.06978377 0.063734315 0.46011704
-0.022515234 0.07013759 0.46078619
-0.070044704 0.08336591 0.4607375
-0.020406704 0.091758423 0.46074378
-0.02039315 0.096005782 0.46022457
-0.020398946 0.098199576 0.4602485
-0.020441607 0.10272737 0.46095318
-0.068085387 0.10521362 0.46013674
-0.068174571 0.10753354 0.46055382
-0.096129812 -0.065537773 0.46107191
-0.093881771 -0.05684717 0.4613333
-0.016062172 -0.028638089 0.46131459
-0.018227404 -0.020061433 0.46148345
-0.018235261 -0.017924754 0.46176705
-0.018216571 -0.01362013 0.46143478
-0.084918648 -0.0093177212 0.46114847
-0.082798555 0.0014307682 0.46145135
-0.080619805 0.0035878669 0.46137682
-0.080617845 0.0057318714 0.46133703
-0.020377507 0.0057254448 0.4616034
-0.020361874 0.0078629246 0.46120703
-0.020376578 0.010026123 0.46149775
-0.020374421 0.01217668 0.46172616
-0.02036164 0.014312371 0.46136597
-0.0203552 0.016450498 0.4611496
-0.022513632 0.018606192 0.46130377
-0.020374518 0.018624905 0.46151668
-0.078418374 0.020772511 0.46103829
-0.02251005 0.027212588 0.46137124
-0.022536488 0.029379435 0.46178588
-0.02465995 0.037944913 0.46136603
-0.076423071 0.040197019 0.46173525
-0.074174851 0.044447631 0.46117282
-0.022506209 0.048652504 0.46100196
-0.022549517 0.050906815 0.46195272
-0.024675384 0.053013742 0.46152052
-0.024680344 0.055172008 0.46163753
-0.02468734 0.059471458 0.46150821
-0.072199509 0.063964598 0.46177456
-0.069937535 0.066013791 0.46101856
-0.070061415 0.068289712 0.46172261
-0.07001695 0.070405856 0.46139744
-0.07229273 0.072682567 0.46186778
-0.022568539 0.072462149 0.46184087
-0.022534503 0.074496582 0.46110815
-0.070062965 0.081229702 0.46102878
-0.02043134 0.081137918 0.46196893
-0.020428238 0.087598808 0.46170977
-0.020432204 0.089775257 0.46172184
-0.070200726 0.092198305 0.46112216
-0.020454042 0.094137534 0.46170571
-0.020471545 0.10071191 0.46175024
-0.020462496 0.1049859 0.46127322
-0.020486714 -0.10221671 0.46212938
-0.01395172 -0.039461412 0.46223393
-0.013962451 -0.028746223 0.46289915
-0.087441094 -0.018000463 0.46294716
-0.018274805 -0.015813649 0.46283913
-0.01827018 -0.0093399771 0.46254781
-0.018253062 -0.0071854671 0.46215683
-0.020427663 -0.0028839053 0.46275371
-0.020437611 -0.00072132744 0.4629932
-0.082958296 0.0035981566 0.4623273
-0.018263882 0.0035878003 0.46247312
-0.082979716 0.0057499334 0.46241796
-0.08304476 0.0079069752 0.46275175
-0.078652963 0.018681869 0.46241924
-0.020436987 0.020833272 0.46283266
-0.078666933 0.031615961 0.4623332
-0.022544237 0.031559102 0.46209317
-0.076468393 0.035911761 0.46209332
-0.022562569 0.03588469 0.46244764
-0.076462567 0.038073543 0.46205935
-0.022587864 0.038067359 0.46279582
-0.022562867 0.040190548 0.46238983
-0.076591991 0.044606786 0.46262828
-0.022556277 0.046631452 0.46224046
-0.024743557 0.057450067 0.46256348
-0.02260006 0.059644196 0.46283785
-0.072305411 0.061887547 0.46244913
-0.022589166 0.061763689 0.46263582
-0.02256009 0.063846618 0.46204716
-0.022571962 0.068201311 0.46226126
-0.072299644 0.070524268 0.4620451
-0.070234448 0.079281546 0.46234301
-0.020469781 0.079124957 0.46287236
-0.02046228 0.085585214 0.46255675
-0.018333048 0.089994676 0.46286267
-0.070324838 0.090183139 0.46205786
-0.018316524 0.092086613 0.46240583
-0.018322205 0.094292328 0.46248072
-0.070513003 0.096944436 0.46269602
-0.070493378 0.1012658 0.46214107
-0.092702165 -0.096705817 0.4633342
-0.011832765 -0.059035368 0.46380442
-0.011829932 -0.054688495 0.46366206
-0.011823328 -0.052472245 0.46308747
-0.013979095 -0.041709982 0.46341267
-0.08969859 -0.030996231 0.4632118
-0.016150028 -0.024473175 0.46368584
-0.016153589 -0.022322869 0.46388736
-0.08758074 -0.020194309 0.46367633
-0.016158916 -0.018001601 0.46383178
-0.016151745 -0.015840046 0.46369678
-0.0831104 -0.00071807846 0.4631893
-0.020453567 0.0035952984 0.46334052
-0.01831816 0.0057518738 0.46381921
-0.083255932 0.012259602 0.46392232
-0.08100941 0.016566841 0.46349797
-0.020471003 0.023024557 0.46382496
-0.078786895 0.027358554 0.46312791
-0.020477714 0.035981663 0.46379679
-0.022618033 0.044595931 0.46342784
-0.020463508 0.046761531 0.46348846
-0.074643627 0.04906553 0.46392375
-0.022603333 0.053196881 0.46310484
-0.022640238 0.055444315 0.46389648
-0.074664585 0.059896398 0.46370938
-0.020489821 0.064116545 0.46399716
-0.022624133 0.066199183 0.4633514
-0.020498972 0.077057764 0.46356675
-0.018349482 0.081436612 0.46375585
-0.072652839 0.08389622 0.46349457
-0.020487504 0.083517134 0.46317574
-0.018378871 0.096756794 0.46384215
-0.018368177 0.098797649 0.46313837
-0.070833884 0.10609668 0.46381882
-0.014068957 -0.093952268 0.4646664
-0.0097052017 -0.076505743 0.4647713
-0.009711476 -0.074330136 0.46472856
-0.0096913502 -0.072054327 0.46409526
-0.0096930033 -0.069958821 0.46450418
-0.011864227 -0.056991171 0.46474895
-0.094420373 -0.05500216 0.4640989
-0.011864032 -0.05051136 0.4649244
-0.014012404 -0.037484955 0.46441513
-0.014020766 -0.035357952 0.46486312
-0.090034232 -0.028930265 0.46494034
-0.01616811 -0.026658216 0.46407726
-0.0161667 -0.013699151 0.46419698
-0.085541278 -0.0028830899 0.46453789
-0.018351972 -0.0028954388 0.46470374
-0.018338485 -0.00072332774 0.46436223
-0.018346354 0.0079316422 0.46450475
-0.083336428 0.010110987 0.46441406
-0.018330956 0.0100799 0.46407229
-0.081160665 0.018760396 0.4643594
-0.078989133 0.029593924 0.46427178
-0.020511482 0.029572379 0.46469456
-0.020503014 0.031707156 0.46436054
-0.020497914 0.033869214 0.464425
-0.079096578 0.038292557 0.46470681
-0.022660956 0.042501755 0.46421486
-0.020500094 0.044661425 0.46420813
-0.020520668 0.049066819 0.46489239
-0.020521253 0.053375263 0.46475777
-0.022662424 0.057642002 0.46409383
-0.072690405 0.066571243 0.4647952
-0.02054346 0.066407591 0.46491054
-0.072704472 0.068758026 0.464766
-0.07279513 0.079696104 0.4646804
-0.072725452 0.081807032 0.46415052
-0.018372435 0.08808089 0.4642612
-0.072835997 0.090621524 0.46413234
-0.070879906 0.099636815 0.46493757
-0.018435864 0.10353453 0.46466228
-0.071035191 0.10860047 0.46494022
-0.011910695 -0.089728199 0.46548674
-0.01403326 -0.044025075 0.46500859
-0.016198253 -0.02022293 0.46526957
-0.018387672 0.012282168 0.46581149
-0.018394077 0.018792709 0.46576023
-0.020545596 0.025272649 0.46540117
-0.020549599 0.027442187 0.46536368
-0.018386673 0.033977546 0.46580046
-0.079239808 0.034025993 0.46571091
-0.020536583 0.038263645 0.46528196
-0.079209834 0.040530335 0.46536863
-0.02055731 0.040457927 0.46556598
-0.020540239 0.042607792 0.46531704
-0.077046372 0.049217638 0.46528828
-0.074956708 0.051434066 0.46581796
-0.020537594 0.051251087 0.46504715
-0.074864261 0.057889815 0.4650448
-0.075065732 0.068938807 0.46584997
-0.020573033 0.06869179 0.46558887
-0.02054779 0.070782103 0.46502665
-0.018401492 0.083853073 0.46505982
-0.018414527 0.086103089 0.46536428
-0.073116675 0.095346607 0.46553737
-0.018453648 0.10144417 0.46520936
-0.018481163 0.10598589 0.46569031
-0.090352751 -0.026863197 0.46662638
-0.088175327 -0.00072512601 0.46695215
-0.083650097 0.014488746 0.46614143
-0.018421143 0.020987555 0.46634576
-0.081512205 0.021014415 0.46636671
-0.081592038 0.023225134 0.46680495
-0.081516579 0.027553268 0.46630722
-0.018421382 0.038357634 0.46633679
-0.079445086 0.042827226 0.46673265
-0.018443543 0.042743769 0.46688795
-0.077157713 0.047111697 0.46600306
-0.077198386 0.051494602 0.46614945
-0.077264346 0.05589243 0.46641922
-0.075028777 0.055847179 0.46614766
-0.020591507 0.055747736 0.46641555
-0.02059295 0.057889868 0.46618998
-0.020595443 0.062260617 0.46635097
-0.075201251 0.066866606 0.46672568
-0.020596838 0.075305387 0.46612608
-0.018435238 0.075327702 0.46626148
-0.072984137 0.077740796 0.46606541
-0.018430518 0.077489004 0.46616077
-0.018425744 0.079652362 0.46604425
-0.073146887 0.088831693 0.46633703
-0.016332116 -0.10108689 0.46715105
-0.014151808 -0.092394419 0.46782497
-0.0097767143 -0.079198629 0.46783388
-0.0097612496 -0.068198986 0.46740094
-0.01191178 -0.048564512 0.46702489
-0.014103719 -0.03119697 0.46743962
-0.014102768 -0.01814642 0.46762034
-0.088245705 -0.015985278 0.46721733
-0.016274251 -0.0072663105 0.46742791
-0.016273506 -0.0050819023 0.46743509
-0.088370077 -0.0029069104 0.46796897
-0.08610446 -0.00072551786 0.46759629
-0.016295537 -0.00072837196 0.46768621
-0.018447326 0.0014409744 0.46711829
-0.01628606 0.0014416233 0.46741426
-0.016296431 0.0036277773 0.46769762
-0.018451717 0.023211146 0.46738157
-0.018480433 0.027584659 0.46787992
-0.081689358 0.029777747 0.46724805
-0.018472636 0.029771015 0.46791616
-0.01844833 0.031891301 0.46715745
-0.01844614 0.040601555 0.46715423
-0.018471038 0.045007907 0.46774638
-0.018457852 0.047127042 0.46719733
-0.077369019 0.053780194 0.46712273
-0.077386238 0.058156136 0.46706873
-0.075354256 0.062632293 0.46789667
-0.075327232 0.064793386 0.46761826
-0.018474517 0.066773623 0.46745864
-0.077556461 0.071399331 0.46747404
-0.075282678 0.071311213 0.4670563
-0.020659316 0.073341303 0.46754536
-0.073225223 0.07581532 0.46776924
-0.016310137 0.084247291 0.46723831
-0.016335838 0.086577035 0.4679985
-0.016311921 0.088662483 0.46733725
-0.071377769 0.10472288 0.46765965
-0.009780854 -0.066197738 0.46864301
-0.011953762 -0.046521973 0.46832311
-0.090760417 -0.024791311 0.46877319
-0.088506058 -0.013848185 0.46865401
-0.016310696 -0.011632102 0.46838883
-0.016310995 -0.0094575165 0.46844035
-0.016335875 -0.0029206998 0.46884391
-0.016316393 0.0080007585 0.468624
-0.018518373 0.016741067 0.46899357
-0.01848514 0.025429595 0.4681136
-0.08190389 0.032043025 0.46841288
-0.079643898 0.036385391 0.46801144
-0.079884432 0.056204144 0.46889895
-0.077660762 0.060547333 0.46863899
-0.020685822 0.060340855 0.46834487
-0.077731013 0.062790617 0.46896148
-0.077683039 0.073697038 0.46809122
-0.075473674 0.073672496 0.46810076
-0.018517088 0.073460281 0.46829841
-0.075537078 0.075933024 0.4684296
-0.075584218 0.078167789 0.46855167
-0.016363868 0.091072284 0.46841753
-0.016351942 0.095413074 0.4680652
-0.016367951 0.097638264 0.46808547
-0.07356853 0.098115988 0.4681741
-0.073733769 0.10053797 0.4689551
-0.073679104 0.102671 0.46843088
-0.0097963251 -0.064160861 0.46968818
-0.095598683 -0.053491667 0.46999618
-0.01197643 -0.044436589 0.46942714
-0.011976373 -0.042277176 0.46962643
-0.093256533 -0.038047727 0.46993491
-0.014163795 -0.033498958 0.46928704
-0.014161212 -0.026945041 0.46914214
-0.014153818 -0.024751255 0.46902624
-0.014161997 -0.022584582 0.46939772
-0.088686325 -0.0051052985 0.46962908
-0.086448245 0.0014568291 0.4694632
-0.086380661 0.0036392256 0.46908164
-0.016340431 0.0058194869 0.4693574
-0.01852783 0.014555532 0.46930474
-0.016366048 0.014585881 0.4698922
-0.016343525 0.016744945 0.46917385
-0.016364584 0.018948464 0.46970659
-0.016359273 0.02332525 0.46976537
-0.082036763 0.025540024 0.46931612
-0.016348939 0.025492288 0.4693538
-0.018522309 0.03639799 0.46907854
-0.079887107 0.045247477 0.46921092
-0.018528359 0.049505007 0.46913055
-0.018539922 0.05173865 0.46955782
-0.018564653 0.062746204 0.46996662
-0.018536095 0.069191769 0.46906456
-0.0185546 0.071462043 0.4695808
-0.016387757 0.080294184 0.46980172
-0.073728472 0.093927644 0.46957907
-0.016408384 0.10009114 0.46920648
-0.016440425 0.10463691 0.46961725
-0.073893294 0.10517984 0.46950614
-0.073933795 0.10743598 0.46947661
-0.0076422533 -0.081906289 0.47075695
-0.0098304758 -0.062129188 0.47092038
-0.093289718 -0.040260181 0.47007391
-0.093287691 -0.035862956 0.4701201
-0.012005959 -0.035801683 0.47075462
-0.093376562 -0.033704225 0.47065544
-0.014186451 -0.020438839 0.47030884
-0.088804856 -0.011701381 0.47021729
-0.014193035 -0.0073119984 0.47043878
-0.014185847 -0.0051114992 0.47022924
-0.016390854 0.010222717 0.47071946
-0.084451713 0.019010397 0.4705292
-0.016403129 0.02776579 0.47077993
-0.016407475 0.038731456 0.47096813
-0.080169268 0.047606453 0.47083515
-0.016405342 0.047510449 0.47094172
-0.018590955 0.056265146 0.47071022
-0.080185048 0.058608625 0.4705863
-0.018601792 0.058456566 0.47072387
-0.018587522 0.060615901 0.4704541
-0.016401848 0.078152552 0.4701378
-0.075940154 0.082952507 0.47047758
-0.073726617 0.087326102 0.47014934
-0.076030456 0.08966177 0.47050965
-0.076140702 0.091991611 0.47096026
-0.016436083 0.093694456 0.47047919
-0.076122902 0.094171129 0.47061837
-0.016451327 0.10257453 0.47039914
-0.014259633 -0.099699825 0.471053
-0.014281634 -0.097618125 0.47173515
-0.0098273121 -0.059949506 0.47104424
-0.012042689 -0.040277228 0.47184789
-0.012038143 -0.033675045 0.47160941
-0.091225848 -0.022729475 0.47121865
-0.089042515 -0.0095355613 0.47153422
-0.089035258 -0.0073366226 0.47144756
-0.016403276 0.012417569 0.47103304
-0.084640764 0.016854996 0.47158876
-0.016441066 0.082775287 0.47136903
-0.076227024 0.087675914 0.47185123
-0.096177354 -0.051606636 0.47293246
-0.012045191 -0.038102131 0.47211942
-0.014264929 -0.013947289 0.47267738
-0.014257682 -0.011746713 0.47249496
-0.014249763 -0.0095334966 0.47227582
-0.016435064 0.021240048 0.47204274
-0.0164512 0.030054521 0.47244436
-0.016461313 0.032271694 0.47259009
-0.080422074 0.04996429 0.47227207
-0.01644581 0.049845014 0.47228765
-0.016465392 0.052082326 0.47261775
-0.018660743 0.054254111 0.47237092
-0.018657714 0.065229222 0.47203141
-0.078339942 0.067698814 0.47238627
-0.07843481 0.069992527 0.47291529
-0.016462654 0.069685586 0.4724009
-0.076333717 0.085582241 0.47271386
-0.012084585 -0.031602494 0.47358823
-0.091622137 -0.020615716 0.47327793
-0.014299748 -0.016181296 0.47375879
-0.014286682 -0.0029498818 0.47358617
-0.087183475 0.0058915694 0.47342652
-0.014273088 0.0058652568 0.47312111
-0.01429705 0.0080891214 0.47387198
-0.084963463 0.021347381 0.47337416
-0.084900945 0.023537915 0.47300488
-0.016483976 0.034503363 0.47308138
-0.016491409 0.043348014 0.47341669
-0.016478712 0.054352112 0.47318482
-0.01650662 0.063253485 0.47372976
-0.016495267 0.06760139 0.47322437
-0.014351578 0.10099313 0.47343951
-0.0055005685 -0.089292064 0.474848
-0.0054962938 -0.087071307 0.47489157
-0.0054988433 -0.084732175 0.47422379
-0.009908664 -0.05600803 0.47476947
-0.012108943 -0.02947381 0.47467351
-0.014327491 -0.00073957694 0.47495341
-0.087305799 0.0081081241 0.47414127
-0.014319796 0.019151095 0.47480205
-0.085105345 0.025806896 0.47410789
-0.08300861 0.034698747 0.47475204
-0.083031796 0.036912855 0.47480673
-0.016516451 0.036795225 0.47427055
-0.016510004 0.045617066 0.47416437
-0.016521828 0.061081141 0.47403926
-0.078598574 0.065706037 0.47407818
-0.016532004 0.065514088 0.47416592
-0.016558759 0.074499734 0.47491932
-0.016536752 0.076638378 0.4743568
-0.076612763 0.081450365 0.47474012
-0.014357163 0.085568681 0.47464043
-0.014369237 0.10336963 0.47405151
-0.012124868 -0.027302762 0.47542861
-0.012129014 -0.025071472 0.47515228
-0.092141598 -0.018508276 0.47597361
-0.014358154 0.0036912665 0.4759554
-0.087560758 0.010345541 0.4754816
-0.014362404 0.016979037 0.47580552
-0.01434803 0.021398481 0.47563645
-0.01435359 0.036925886 0.4758397
-0.083092444 0.039168354 0.47514522
-0.016565859 0.041341733 0.47574347
-0.01435534 0.045764942 0.47562274
-0.078902401 0.077085473 0.47536537
-0.014384808 0.083579421 0.47593793
-0.014394494 0.088051736 0.47596413
-0.014415815 0.09702497 0.47597402
-0.014394143 0.099128351 0.47530317
-0.0099448701 -0.058394983 0.47624061
-0.0099314833 -0.053943019 0.47612613
-0.092296556 -0.016312052 0.47678643
-0.014363284 0.010336331 0.47602367
-0.014379771 0.012560469 0.47652644
-0.014381139 0.014788701 0.47649896
-0.085470363 0.028125372 0.47610542
-0.014371496 0.034718968 0.47611043
-0.083309501 0.041484427 0.47629336
-0.014362886 0.043584935 0.47607711
-0.014366001 0.048037685 0.47624096
-0.081168488 0.05265785 0.47659212
-0.08112599 0.054845735 0.47627944
-0.016607096 0.056959555 0.47660753
-0.016629012 0.072569661 0.47685057
-0.014410992 0.09482789 0.47624475
-0.077169284 0.099937834 0.47666478
-0.012185025 -0.02298373 0.47746325
-0.012188516 -0.014100726 0.47793579
-0.012200265 -0.011879206 0.47788265
-0.014393407 0.0014713908 0.47713855
-0.014402512 0.023697749 0.47734037
-0.014419179 0.025945757 0.4777759
-0.01441753 0.030414263 0.47794259
-0.014424191 0.041529953 0.47781414
-0.083503887 0.043808728 0.47738147
-0.083543718 0.04605158 0.4774861
-0.016629383 0.059289921 0.47740433
-0.014415937 0.074897945 0.47743753
-0.014449897 0.09281794 0.47747031
-0.077212676 0.097757563 0.47718334
-0.077286549 0.10235001 0.47720107
-0.012243002 -0.094518356 0.4786388
-0.009971939 -0.05195982 0.47830057
-0.01221041 -0.020808877 0.47854567
-0.012214969 -0.018578455 0.47882676
-0.090429306 0.001487324 0.4788886
-0.088035628 0.012629522 0.47808155
-0.014430817 0.028189072 0.47802994
-0.014442264 0.032678187 0.47861606
-0.014450872 0.039391462 0.47888869
-0.081643336 0.064145125 0.47892734
-0.014459604 0.072859846 0.47873414
-0.014458138 0.077292576 0.47848001
-0.014450698 0.079523258 0.47836846
-0.010009968 -0.049873196 0.4796541
-0.012219707 -0.016361237 0.47908565
-0.08184275 0.073268034 0.47964355
-0.081804216 0.075482704 0.47926337
-0.014481757 0.081875347 0.47902563
-0.014496983 0.090945102 0.4794434
-0.09522333 -0.032120284 0.48003811
-0.09537179 -0.029927319 0.48077032
-0.012272005 -0.0097031044 0.4807514
-0.090642221 0.0037270649 0.48000124
-0.088480204 0.014945577 0.48043615
-0.081866413 0.062078159 0.48034492
-0.01453232 0.070954539 0.48097673
-0.079741761 0.080148302 0.48024234
-0.077813201 0.10529009 0.48016959
-0.010033147 -0.047775485 0.48100087
-0.010036623 -0.045578077 0.48137414
-0.010044068 -0.043317806 0.48123032
-0.010051948 -0.041122943 0.48179972
-0.012282309 -0.0074781044 0.48118445
-0.012302274 -0.0052387672 0.48199603
-0.08645907 0.030699778 0.4815616
-0.014532535 0.050812133 0.48152515
-0.014525001 0.064236075 0.48116288
-0.012307213 0.084509522 0.48129404
-0.012342856 0.098232321 0.48195702
-0.088857152 0.017259052 0.48248938
-0.084369339 0.048760075 0.48216629
-0.014555587 0.053113822 0.482052
-0.014552091 0.055377968 0.48217508
-0.014570602 0.066653073 0.48237616
-0.014558258 0.068865463 0.48214749
-0.080101594 0.082764588 0.48222855
-0.080177836 0.085102759 0.48256722
-0.080274932 0.087469168 0.48295486
-0.080314942 0.089763761 0.48296824
-0.012365979 0.10291928 0.48252922
-0.0078471862 -0.081901267 0.48375508
-0.010073573 -0.038977776 0.48302856
-0.012343355 -0.003012015 0.48363513
-0.012337867 0.0037485864 0.48340532
-0.0123333 0.0059896172 0.48321164
-0.012337062 0.0082493043 0.4833295
-0.089097992 0.019562492 0.48380357
-0.086795889 0.033077978 0.48337111
-0.08468429 0.051205508 0.48391241
-0.014596803 0.057777774 0.48340392
-0.014605413 0.060089141 0.48391411
-0.014600352 0.062285908 0.48346367
-0.01236826 0.089429721 0.48347288
-0.080355041 0.092079818 0.48307309
-0.012384665 0.1008875 0.48372599
-0.014688112 -0.10489129 0.48473796
-0.093695961 -0.0052671996 0.48410082
-0.093704909 -0.0030101161 0.48416212
-0.012358673 0.0014930932 0.48423529
-0.012377278 0.087301873 0.484231
-0.012397582 0.09196505 0.48480114
-0.012391138 0.094115436 0.48412761
-0.012388997 0.096414126 0.48419574
-0.010114127 -0.036892056 0.48515132
-0.010129884 -0.032409687 0.48550662
-0.010129305 -0.030150278 0.48562738
-0.093942985 -0.014338984 0.48535195
-0.012401491 0.010547202 0.48580918
-0.087121367 0.03546093 0.48520088
-0.08501479 0.053679213 0.48573178
-0.08273831 0.071811751 0.485048
-0.080807291 0.09486673 0.48554751
-0.080900565 0.097267643 0.48595506
-0.010149329 -0.034719039 0.48628977
-0.094174579 -0.012102757 0.48653084
-0.012431031 0.012847382 0.48690686
-0.012419249 0.017372075 0.48689404
