# .PCD v.7 - Point Cloud Data file format
FIELDS x y z rgb imX imY
SIZE 4 4 4 4 4 4
TYPE F F F F F F
COUNT 1 1 1 1 1 1
WIDTH 842
HEIGHT 1
VIEWPOINT 0 0 0 1 0 0 0
POINTS 842
DATA ascii
0.10209659 0.64700001 -0.038569827 2.1190702e-39 410 274
0.10323101 0.64700001 -0.038569827 2.3956571e-39 411 274
0.10436542 0.64700001 -0.038569827 4.1401685e-39 412 274
0.10566287 0.648 -0.038629439 4.785538e-39 413 274
0.10861198 0.65899998 -0.039285187 5.3386991e-39 414 274
0.1094343 0.65700001 -0.039165959 5.8918715e-39 415 274
0.11058623 0.65700001 -0.039165959 6.0773333e-39 416 274
0.11173818 0.65700001 -0.039165959 6.2617246e-39 417 274
0.11254645 0.65499997 -0.039046731 6.1716842e-39 418 274
0.11352132 0.65399998 -0.038987119 6.1716842e-39 419 274
0.114668 0.65399998 -0.038987119 6.2627994e-39 420 274
0.11581468 0.65399998 -0.038987119 6.3549964e-39 421 274
0.11696136 0.65399998 -0.038987119 6.6308603e-39 422 274
0.11828862 0.65499997 -0.039046731 6.6308603e-39 423 274
0.11943705 0.65499997 -0.039046731 6.4471893e-39 424 274
0.12040139 0.65399998 -0.038987119 6.4471893e-39 425 274
0.12136222 0.653 -0.038927507 6.3557153e-39 426 274
0.12250715 0.653 -0.038927507 6.4479109e-39 427 274
0.12365208 0.653 -0.038927507 6.5393905e-39 428 274
0.12479701 0.653 -0.038927507 6.7234216e-39 429 274
0.12574907 0.65200001 -0.038867895 6.6323078e-39 430 274
0.12650299 0.64999998 -0.038748663 6.7245034e-39 431 274
0.12764266 0.64999998 -0.038748663 6.5415555e-39 432 274
0.12878232 0.64999998 -0.038748663 6.6337511e-39 433 274
0.13032176 0.65200001 -0.038867895 6.8174221e-39 434 274
-0.084293254 0.70700002 -0.043386232 3.8685871e-39 252 275
-0.083053641 0.70700002 -0.043386232 3.4994458e-39 253 275
-0.081698313 0.70599997 -0.043324865 2.8548079e-39 254 275
-0.080232531 0.704 -0.043202132 2.7622535e-39 255 275
-0.078998186 0.704 -0.043202132 2.3941997e-39 256 275
-0.077653378 0.70300001 -0.043140765 2.2094483e-39 257 275
-0.076203369 0.70099998 -0.043018032 2.0257829e-39 258 275
-0.07486733 0.69999999 -0.042956665 2.0257829e-39 259 275
-0.073429599 0.69800001 -0.042833932 1.934309e-39 260 275
-0.072102323 0.69700003 -0.042772565 2.026506e-39 261 275
-0.070880257 0.69700003 -0.042772565 1.9353894e-39 262 275
-0.069558233 0.69599998 -0.042711195 2.1194205e-39 263 275
-0.068337917 0.69599998 -0.042711195 2.2112532e-39 264 275
-0.066924736 0.69400001 -0.042588469 2.1190576e-39 265 275
-0.06561324 0.69300002 -0.042527102 2.1190519e-39 266 275
-0.064398177 0.69300002 -0.042527102 2.0268563e-39 267 275
-0.063183114 0.69300002 -0.042527102 1.6591486e-39 268 275
-0.061789215 0.69099998 -0.042404365 1.4747573e-39 269 275
-0.060577665 0.69099998 -0.042404365 1.1056217e-39 270 275
-0.059366114 0.69099998 -0.042404365 1.1056217e-39 271 275
-0.058070395 0.69 -0.042342998 9.208773e-40 272 275
-0.0568606 0.69 -0.042342998 9.208773e-40 273 275
-0.055489492 0.68800002 -0.042220265 7.3756784e-40 274 275
-0.054204296 0.68699998 -0.042158898 7.3756784e-40 275 275
-0.052999757 0.68699998 -0.042158898 8.2941034e-40 276 275
-0.051719822 0.68599999 -0.042097531 1.1056385e-39 277 275
-0.050517038 0.68599999 -0.042097531 1.1999907e-39 278 275
-0.049170479 0.68400002 -0.041974798 1.1077951e-39 279 275
-0.047901068 0.68300003 -0.041913435 1.1059916e-39 280 275
-0.04670354 0.68300003 -0.041913435 8.2976347e-40 281 275
-0.045439381 0.68199998 -0.041852064 8.2976067e-40 282 275
-0.044048995 0.67900002 -0.041667968 1.1063476e-39 283 275
-0.042795356 0.67799997 -0.041606598 1.1074266e-39 284 275
-0.041483864 0.676 -0.041483864 1.2914577e-39 285 275
-0.040238999 0.67500001 -0.041422497 1.4751301e-39 286 275
-0.038997639 0.67400002 -0.041361131 1.4751301e-39 287 275
-0.037815895 0.67400002 -0.041361131 1.5673257e-39 288 275
-0.036525436 0.67199999 -0.041238401 1.5673257e-39 289 275
-0.035347197 0.67199999 -0.041238401 1.8435567e-39 290 275
-0.034118112 0.671 -0.041177034 2.0283067e-39 291 275
-0.032892533 0.67000002 -0.041115668 2.5789735e-39 292 275
-0.031623118 0.66799998 -0.040992931 2.6711691e-39 293 275
-0.030451892 0.66799998 -0.040992931 2.9463169e-39 294 275
-0.029236831 0.667 -0.040931564 3.0385125e-39 295 275
-0.028067358 0.667 -0.040931564 3.0399348e-39 296 275
-0.026897885 0.667 -0.040931564 3.0399348e-39 297 275
-0.025728412 0.667 -0.040931564 2.9484427e-39 298 275
-0.024816679 0.67400002 -0.041361131 2.5796602e-39 299 275
-0.023634933 0.67400002 -0.041361131 2.3027229e-39 300 275
-0.022453187 0.67400002 -0.041361131 1.6573535e-39 301 275
-0.021271439 0.67400002 -0.041361131 1.2882347e-39 302 275
-0.020089693 0.67400002 -0.041361131 1.3804303e-39 303 275
-0.018907947 0.67400002 -0.041361131 1.4740763e-39 304 275
-0.017673599 0.67199999 -0.041238401 2.1194457e-39 305 275
-0.016470812 0.671 -0.041177034 2.8573625e-39 306 275
-0.015294326 0.671 -0.041177034 3.3183392e-39 307 275
-0.014202001 0.67500001 -0.041422497 3.6878252e-39 308 275
-0.013037786 0.676 -0.041483864 3.7800208e-39 309 275
-0.011852534 0.676 -0.041483864 3.781453e-39 310 275
-0.01066728 0.676 -0.041483864 3.6892573e-39 311 275
-0.0094820261 0.676 -0.041483864 3.8718507e-39 312 275
-0.0082967728 0.676 -0.041483864 4.0558818e-39 313 275
-0.0071325595 0.67799997 -0.041606598 4.0555133e-39 314 275
-0.0059437994 0.67799997 -0.041606598 3.9633177e-39 315 275
-0.0047690663 0.68000001 -0.041729335 3.8703864e-39 316 275
-0.00358732 0.68199998 -0.041852064 3.4090481e-39 317 275
-0.0023775198 0.67799997 -0.041606598 2.4878176e-39 318 275
-0.0011817467 0.67400002 -0.041361131 2.0268395e-39 319 275
0 0.67400002 -0.041361131 1.290736e-39 320 275
0.0011852533 0.676 -0.041483864 1.1063448e-39 321 275
0.0023705065 0.676 -0.041483864 1.1974838e-39 322 275
0.0035505001 0.67500001 -0.041422497 1.4744294e-39 323 275
0.0047339997 0.67500001 -0.041422497 1.659541e-39 324 275
0.0058473665 0.667 -0.040931564 2.3049104e-39 325 275
0.0070063197 0.66600001 -0.040870197 2.4907295e-39 326 275
0.0081249457 0.662 -0.04062473 3.0439033e-39 327 275
0.009285653 0.662 -0.04062473 3.4119572e-39 328 275
0.01044636 0.662 -0.04062473 3.5041542e-39 329 275
0.0116246 0.66299999 -0.040686097 3.7792992e-39 330 275
0.012806346 0.66399997 -0.040747464 3.6871021e-39 331 275
0.013970559 0.66399997 -0.040747464 3.226847e-39 332 275
0.01518036 0.66600001 -0.040870197 3.0424558e-39 333 275
0.016348081 0.66600001 -0.040870197 2.6743921e-39 334 275
0.017515799 0.66600001 -0.040870197 2.2134154e-39 335 275
0.018683519 0.66600001 -0.040870197 2.2108973e-39 336 275
0.019881045 0.667 -0.040931564 1.6580822e-39 337 275
0.021082079 0.66799998 -0.040992931 1.2885836e-39 338 275
0.022253305 0.66799998 -0.040992931 9.2016124e-40 339 275
0.023424532 0.66799998 -0.040992931 7.3721191e-40 340 275
0.024669399 0.67000002 -0.041115668 9.2196331e-40 341 275
0.025844134 0.67000002 -0.041115668 7.3936711e-40 342 275
0.026938211 0.66799998 -0.040992931 6.4717008e-40 343 275
0.028067358 0.667 -0.040931564 9.208801e-40 344 275
0.029236831 0.667 -0.040931564 6.4465335e-40 345 275
0.030406304 0.667 -0.040931564 4.6062222e-40 346 275
0.031623118 0.66799998 -0.040992931 4.6062222e-40 347 275
0.032794341 0.66799998 -0.040992931 4.6097815e-40 348 275
0.033965573 0.66799998 -0.040992931 7.3756504e-40 349 275
0.035136797 0.66799998 -0.040992931 1.3814869e-39 350 275
0.036471087 0.671 -0.041177034 1.6584325e-39 351 275
0.037703678 0.67199999 -0.041238401 2.1183331e-39 352 275
0.03888192 0.67199999 -0.041238401 2.7637025e-39 353 275
0.040060159 0.67199999 -0.041238401 4.050847e-39 354 275
0.041238401 0.67199999 -0.041238401 4.3274339e-39 355 275
0.042416636 0.67199999 -0.041238401 3.8685983e-39 356 275
0.042167664 0.64999998 -0.039888334 3.5001745e-39 357 275
0.04330733 0.64999998 -0.039888334 3.4994458e-39 358 275
0.044446997 0.64999998 -0.039888334 3.2232177e-39 359 275
0.045726933 0.65200001 -0.040011063 2.5800133e-39 360 275
0.050762504 0.65799999 -0.040379263 1.4733322e-39 364 275
0.051916201 0.65799999 -0.040379263 1.3811366e-39 365 275
0.05306989 0.65799999 -0.040379263 1.014875e-39 366 275
0.054141179 0.65700001 -0.0403179 1.5680488e-39 367 275
0.055293117 0.65700001 -0.0403179 1.7531617e-39 368 275
0.056445058 0.65700001 -0.0403179 1.7531617e-39 369 275
0.057684667 0.65799999 -0.040379263 1.8421343e-39 370 275
0.058838356 0.65799999 -0.040379263 1.6577417e-39 371 275
0.059992049 0.65799999 -0.040379263 1.4719253e-39 372 275
0.061145745 0.65799999 -0.040379263 1.287534e-39 373 275
0.062394116 0.65899998 -0.04044063 1.3793611e-39 374 275
0.063549563 0.65899998 -0.04044063 1.6559466e-39 375 275
0.064705007 0.65899998 -0.04044063 2.0247067e-39 376 275
0.064661182 0.64700001 -0.039704233 2.301295e-39 377 275
0.065795586 0.64700001 -0.039704233 2.5793098e-39 378 275
0.066929989 0.64700001 -0.039704233 3.2246792e-39 379 275
0.068064399 0.64700001 -0.039704233 4.1444621e-39 380 275
0.069091856 0.64600003 -0.039642867 4.2366578e-39 381 275
0.072507344 0.667 -0.040931564 3.9589821e-39 382 275
0.073676817 0.667 -0.040931564 3.4980039e-39 383 275
0.07484629 0.667 -0.040931564 2.9462749e-39 384 275
0.076015763 0.667 -0.040931564 2.6696894e-39 385 275
0.077069521 0.66600001 -0.040870197 1.6587801e-39 386 275
0.078002289 0.66399997 -0.040747464 1.4743902e-39 387 275
0.079166502 0.66399997 -0.040747464 1.2889367e-39 388 275
0.080209732 0.66299999 -0.040686097 1.2889367e-39 389 275
0.081126735 0.66100001 -0.040563367 1.1059916e-39 390 275
0.08228568 0.66100001 -0.040563367 1.1981873e-39 391 275
0.08306592 0.65799999 -0.040379263 1.1978243e-39 392 275
0.084219612 0.65799999 -0.040379263 1.0134317e-39 393 275
0.08524356 0.65700001 -0.0403179 9.219591e-40 394 275
0.086000994 0.65399998 -0.040133797 8.2976347e-40 395 275
0.087014422 0.653 -0.04007243 1.1052756e-39 396 275
0.088024348 0.65200001 -0.040011063 1.2896668e-39 397 275
0.088893995 0.64999998 -0.039888334 1.4733476e-39 398 275
0.090033658 0.64999998 -0.039888334 1.7502946e-39 399 275
0.091033064 0.64899999 -0.039826967 1.8450098e-39 400 275
0.092028953 0.648 -0.0397656 2.5825763e-39 401 275
0.093021348 0.64700001 -0.039704233 2.8602323e-39 402 275
0.094155751 0.64700001 -0.039704233 2.9527867e-39 403 275
0.095290154 0.64700001 -0.039704233 3.776781e-39 404 275
0.096424565 0.64700001 -0.039704233 3.2236072e-39 405 275
0.09770976 0.648 -0.0397656 2.8544702e-39 406 275
0.098845914 0.648 -0.0397656 2.4856891e-39 407 275
0.099827781 0.64700001 -0.039704233 2.1172793e-39 408 275
0.10096219 0.64700001 -0.039704233 2.0250837e-39 409 275
0.10209659 0.64700001 -0.039704233 1.9336069e-39 410 275
0.10339055 0.648 -0.0397656 2.0258025e-39 411 275
0.10452672 0.648 -0.0397656 2.394941e-39 412 275
0.10549982 0.64700001 -0.039704233 2.8559191e-39 413 275
0.10663422 0.64700001 -0.039704233 3.6842351e-39 414 275
0.10860147 0.65200001 -0.040011063 4.1448531e-39 415 275
0.10974464 0.65200001 -0.040011063 5.0653548e-39 416 275
0.11122796 0.65399998 -0.040133797 5.5259743e-39 417 275
0.11237463 0.65399998 -0.040133797 5.7121466e-39 418 275
0.11334774 0.653 -0.04007243 5.8043422e-39 419 275
0.11449267 0.653 -0.04007243 6.2627966e-39 420 275
0.11563759 0.653 -0.04007243 6.3549936e-39 421 275
0.11678252 0.653 -0.04007243 6.1716814e-39 422 275
0.11792745 0.653 -0.04007243 6.3557125e-39 423 275
0.11907237 0.653 -0.04007243 6.4471893e-39 424 275
0.1200332 0.65200001 -0.040011063 6.4471893e-39 425 275
0.12117637 0.65200001 -0.040011063 6.3557125e-39 426 275
0.12194432 0.64999998 -0.039888334 6.3557125e-39 427 275
0.12308399 0.64999998 -0.039888334 6.4479109e-39 428 275
0.12422366 0.64999998 -0.039888334 6.4479109e-39 429 275
0.12517045 0.64899999 -0.039826967 6.5397534e-39 430 275
0.12630838 0.64899999 -0.039826967 6.6323078e-39 431 275
0.12705354 0.64700001 -0.039704233 6.5404751e-39 432 275
0.12818795 0.64700001 -0.039704233 6.5404751e-39 433 275
0.12932236 0.64700001 -0.039704233 6.5412024e-39 434 275
0.13045676 0.64700001 -0.039704233 6.5412024e-39 435 275
-0.083053641 0.70700002 -0.044625837 3.7771075e-39 253 276
-0.081466876 0.704 -0.044436477 3.0402726e-39 254 276
-0.080118567 0.70300001 -0.04437336 2.7633255e-39 255 276
-0.078885972 0.70300001 -0.04437336 2.6707796e-39 256 276
-0.077432454 0.70099998 -0.044247117 2.3941941e-39 257 276
-0.076094657 0.69999999 -0.044183996 2.2094483e-39 258 276
-0.074653424 0.69800001 -0.04405776 2.2094483e-39 259 276
-0.073324397 0.69700003 -0.043994639 1.9339432e-39 260 276
-0.071998879 0.69599998 -0.043931518 1.9339432e-39 261 276
-0.070778556 0.69599998 -0.043931518 1.7509967e-39 262 276
-0.069358356 0.69400001 -0.043805279 1.9353894e-39 263 276
-0.068141542 0.69400001 -0.043805279 2.1187016e-39 264 276
-0.066828303 0.69300002 -0.043742158 2.2108973e-39 265 276
-0.06561324 0.69300002 -0.043742158 2.1197764e-39 266 276
-0.064398177 0.69300002 -0.043742158 2.1197764e-39 267 276
-0.063000768 0.69099998 -0.043615919 1.8435469e-39 268 276
-0.061789215 0.69099998 -0.043615919 1.6587955e-39 269 276
-0.060577665 0.69099998 -0.043615919 1.2903703e-39 270 276
-0.059280202 0.69 -0.043552797 1.2903703e-39 271 276
-0.057902083 0.68800002 -0.043426562 1.1056245e-39 272 276
-0.056695789 0.68800002 -0.043426562 9.2123323e-40 273 276
-0.055408835 0.68699998 -0.043363437 8.2976347e-40 274 276
-0.054204296 0.68699998 -0.043363437 8.2976347e-40 275 276
-0.052999757 0.68699998 -0.043363437 1.0130785e-39 276 276
-0.051719822 0.68599999 -0.043300316 1.2896668e-39 277 276
-0.050517038 0.68599999 -0.043300316 1.1077923e-39 278 276
-0.049170479 0.68400002 -0.043174081 1.1077923e-39 279 276
-0.047901068 0.68300003 -0.043110959 1.1059916e-39 280 276
-0.046635158 0.68199998 -0.043047838 7.3756784e-40 281 276
-0.045306131 0.68000001 -0.042921599 8.2976347e-40 282 276
-0.043984115 0.67799997 -0.042795356 1.1059916e-39 283 276
-0.042669121 0.676 -0.042669121 1.1981873e-39 284 276
-0.041361131 0.67400002 -0.042542879 1.2907416e-39 285 276
-0.040179387 0.67400002 -0.042542879 1.5662495e-39 286 276
-0.03888192 0.67199999 -0.042416636 1.5662495e-39 287 276
-0.037703678 0.67199999 -0.042416636 1.4751301e-39 288 276
-0.036471087 0.671 -0.042353518 1.5673257e-39 289 276
-0.0352946 0.671 -0.042353518 1.9353894e-39 290 276
-0.034067266 0.67000002 -0.042290401 2.1194205e-39 291 276
-0.032745253 0.667 -0.042101037 2.5786036e-39 292 276
-0.03157578 0.667 -0.042101037 2.5786036e-39 293 276
-0.030360719 0.66600001 -0.042037919 2.8544702e-39 294 276
-0.029192999 0.66600001 -0.042037919 2.8544702e-39 295 276
-0.028025279 0.66600001 -0.042037919 2.764427e-39 296 276
-0.026857559 0.66600001 -0.042037919 2.8566226e-39 297 276
-0.025728412 0.667 -0.042101037 2.7651402e-39 298 276
-0.024558939 0.667 -0.042101037 2.4889135e-39 299 276
-0.023424532 0.66799998 -0.042164158 2.3038019e-39 300 276
-0.022353247 0.671 -0.042353518 1.7506282e-39 301 276
-0.021176759 0.671 -0.042353518 1.2889396e-39 302 276
-0.020000271 0.671 -0.042353518 1.1967439e-39 303 276
-0.018823786 0.671 -0.042353518 1.3797143e-39 304 276
-0.017620999 0.67000002 -0.042290401 1.840691e-39 305 276
-0.016446266 0.67000002 -0.042290401 2.302395e-39 306 276
-0.015271533 0.67000002 -0.042290401 3.0399601e-39 307 276
-0.014223038 0.676 -0.042669121 3.2264967e-39 308 276
-0.013037786 0.676 -0.042669121 3.6871161e-39 309 276
-0.011852534 0.676 -0.042669121 3.6889042e-39 310 276
-0.01066728 0.676 -0.042669121 3.7810998e-39 311 276
-0.0011817467 0.67400002 -0.042542879 2.3981388e-39 319 276
0 0.67400002 -0.042542879 1.8449692e-39 320 276
0.0011817467 0.67400002 -0.042542879 1.2917954e-39 321 276
0.0023634934 0.67400002 -0.042542879 1.5640845e-39 322 276
0.0035084197 0.667 -0.042101037 1.7484772e-39 323 276
0.0046778931 0.667 -0.042101037 1.4737008e-39 324 276
0.0058385995 0.66600001 -0.042037919 1.8428434e-39 325 276
0.0069852793 0.66399997 -0.041911677 2.0286752e-39 326 276
0.0081494926 0.66399997 -0.041911677 2.3974591e-39 327 276
0.0092996797 0.66299999 -0.041848559 2.8584345e-39 328 276
0.01046214 0.66299999 -0.041848559 2.9506301e-39 329 276
0.0116246 0.66299999 -0.041848559 3.1335794e-39 330 276
0.012806346 0.66399997 -0.041911677 2.8569911e-39 331 276
0.013970559 0.66399997 -0.041911677 2.7630046e-39 332 276
0.015134773 0.66399997 -0.041911677 2.5782532e-39 333 276
0.016298985 0.66399997 -0.041911677 2.1179982e-39 334 276
0.0174632 0.66399997 -0.041911677 1.9336069e-39 335 276
0.018627413 0.66399997 -0.041911677 1.7484926e-39 336 276
0.019851239 0.66600001 -0.042037919 1.3797115e-39 337 276
0.021050518 0.667 -0.042101037 1.1963908e-39 338 276
0.022219993 0.667 -0.042101037 8.2760968e-40 339 276
0.023389466 0.667 -0.042101037 8.2868447e-40 340 276
0.02459576 0.66799998 -0.042164158 1.0130757e-39 341 276
0.025844134 0.67000002 -0.042290401 8.2976347e-40 342 276
0.026938211 0.66799998 -0.042164158 8.2976347e-40 343 276
0.028067358 0.667 -0.042101037 8.2868447e-40 344 276
0.029236831 0.667 -0.042101037 6.4465335e-40 345 276
0.030406304 0.667 -0.042101037 5.5245491e-40 346 276
0.03157578 0.667 -0.042101037 6.4465054e-40 347 276
0.032794341 0.66799998 -0.042164158 8.290376e-40 348 276
0.033914726 0.667 -0.042101037 1.1056245e-39 349 276
0.035084199 0.667 -0.042101037 1.6591486e-39 350 276
0.036471087 0.671 -0.042353518 2.1201267e-39 351 276
0.037703678 0.67199999 -0.042416636 2.5814622e-39 352 276
0.03888192 0.67199999 -0.042416636 3.6878084e-39 353 276
0.040060159 0.67199999 -0.042416636 4.8827558e-39 354 276
0.040011063 0.65200001 -0.041154239 5.066787e-39 355 276
0.041154239 0.65200001 -0.041154239 4.0551434e-39 356 276
0.042167664 0.64999998 -0.041027997 3.7785565e-39 357 276
0.04330733 0.64999998 -0.041027997 3.5923701e-39 358 276
0.044446997 0.64999998 -0.041027997 3.3157833e-39 359 276
0.046726331 0.64999998 -0.041027997 2.7640556e-39 361 276
0.047865998 0.64999998 -0.041027997 2.1212057e-39 362 276
0.049005665 0.64999998 -0.041027997 1.7520645e-39 363 276
0.050685361 0.65700001 -0.041469838 1.5658838e-39 364 276
0.051837299 0.65700001 -0.041469838 1.2889367e-39 365 276
0.052989237 0.65700001 -0.041469838 1.1052714e-39 366 276
0.054141179 0.65700001 -0.041469838 1.4740539e-39 367 276
0.055293117 0.65700001 -0.041469838 1.3833002e-39 368 276
0.056445058 0.65700001 -0.041469838 1.3833002e-39 369 276
0.057596996 0.65700001 -0.041469838 1.4729819e-39 370 276
0.058748938 0.65700001 -0.041469838 1.2885906e-39 371 276
0.05990088 0.65700001 -0.041469838 1.4711854e-39 372 276
0.061145745 0.65799999 -0.04153296 1.5633825e-39 373 276
0.062299434 0.65799999 -0.04153296 1.7488429e-39 374 276
0.06345313 0.65799999 -0.04153296 2.1179856e-39 375 276
0.063526772 0.64700001 -0.04083864 2.8548177e-39 376 276
0.064661182 0.64700001 -0.04083864 3.2239604e-39 377 276
0.065795586 0.64700001 -0.04083864 3.7760495e-39 378 276
0.066826545 0.64600003 -0.040775519 4.5139733e-39 379 276
0.067959204 0.64600003 -0.040775519 4.8849012e-39 380 276
0.069091856 0.64600003 -0.040775519 4.6083143e-39 381 276
0.073676817 0.667 -0.042101037 3.9611372e-39 383 276
0.07484629 0.667 -0.042101037 3.3161336e-39 384 276
0.076015763 0.667 -0.042101037 2.9473511e-39 385 276
0.077069521 0.66600001 -0.042037919 2.211951e-39 386 276
0.078002289 0.66399997 -0.041911677 1.7513316e-39 387 276
0.079166502 0.66399997 -0.041911677 1.4740385e-39 388 276
0.080088757 0.662 -0.041785441 1.3818428e-39 389 276
0.08088126 0.65899998 -0.041596077 1.2889367e-39 390 276
0.082036704 0.65899998 -0.041596077 1.2889367e-39 391 276
0.08306592 0.65799999 -0.04153296 1.2889396e-39 392 276
0.084091611 0.65700001 -0.041469838 1.0127128e-39 393 276
0.084984057 0.65499997 -0.041343596 1.0130757e-39 394 276
0.085869491 0.653 -0.041217357 1.1052714e-39 395 276
0.087014422 0.653 -0.041217357 1.1052714e-39 396 276
0.088024348 0.65200001 -0.041154239 1.1052714e-39 397 276
0.088893995 0.64999998 -0.041027997 1.197474e-39 398 276
0.090033658 0.64999998 -0.041027997 1.5658964e-39 399 276
0.091033064 0.64899999 -0.040964879 1.8421343e-39 400 276
0.092028953 0.648 -0.040901758 2.2109155e-39 401 276
0.093021348 0.64700001 -0.04083864 2.3031139e-39 402 276
0.094155751 0.64700001 -0.04083864 2.1183639e-39 403 276
0.095290154 0.64700001 -0.04083864 1.9336041e-39 404 276
0.096424565 0.64700001 -0.04083864 1.6573759e-39 405 276
0.097558975 0.64700001 -0.04083864 1.933237e-39 406 276
0.098693378 0.64700001 -0.04083864 1.933237e-39 407 276
0.099827781 0.64700001 -0.04083864 1.6577263e-39 408 276
0.10096219 0.64700001 -0.04083864 1.6577263e-39 409 276
0.10209659 0.64700001 -0.04083864 1.7502778e-39 410 276
0.10323101 0.64700001 -0.04083864 1.7502778e-39 411 276
0.10436542 0.64700001 -0.04083864 2.209098e-39 412 276
0.10549982 0.64700001 -0.04083864 2.486045e-39 413 276
0.10663422 0.64700001 -0.04083864 3.3140078e-39 414 276
0.10826832 0.64999998 -0.041027997 3.8671816e-39 415 276
0.10940799 0.64999998 -0.041027997 4.3281527e-39 416 276
0.11088781 0.65200001 -0.041154239 4.9735221e-39 417 276
0.11203098 0.65200001 -0.041154239 5.2515356e-39 418 276
0.11317416 0.65200001 -0.041154239 5.5284812e-39 419 276
0.11431734 0.65200001 -0.041154239 5.895456e-39 420 276
0.11510632 0.64999998 -0.041027997 6.0802074e-39 421 276
0.11624599 0.64999998 -0.041027997 6.1716814e-39 422 276
0.11738566 0.64999998 -0.041027997 6.3557125e-39 423 276
0.11889002 0.65200001 -0.041154239 6.4475452e-39 424 276
0.119665 0.64999998 -0.041027997 6.4475452e-39 425 276
0.12061881 0.64899999 -0.040964879 6.4475452e-39 426 276
0.12175673 0.64899999 -0.040964879 6.4475452e-39 427 276
0.12289463 0.64899999 -0.040964879 6.4475452e-39 428 276
0.12403254 0.64899999 -0.040964879 6.5397408e-39 429 276
0.1249776 0.648 -0.040901758 6.5393877e-39 430 276
0.12611376 0.648 -0.040901758 6.7234188e-39 431 276
0.12705354 0.64700001 -0.04083864 6.5397534e-39 432 276
0.12798983 0.64600003 -0.040775519 6.5397534e-39 433 276
0.12872271 0.64399999 -0.04064928 6.5404751e-39 434 276
0.12985186 0.64399999 -0.04064928 6.5404751e-39 435 276
0.13098101 0.64399999 -0.04064928 6.7248678e-39 436 276
0.13149473 0.64099997 -0.040459916 6.9096178e-39 437 276
0.13261862 0.64099997 -0.040459916 6.8177879e-39 438 276
0.13374251 0.64099997 -0.040459916 7.0943748e-39 439 276
-0.083935574 0.704 -0.045670826 4.7919797e-39 252 277
-0.082701221 0.704 -0.045670826 4.1466103e-39 253 277
-0.081466876 0.704 -0.045670826 3.4097739e-39 254 277
-0.079776667 0.69999999 -0.04541133 2.9484371e-39 255 277
-0.078549333 0.69999999 -0.04541133 2.6718586e-39 256 277
-0.077101074 0.69800001 -0.045281585 2.4874673e-39 257 277
-0.075768545 0.69700003 -0.045216713 2.3941969e-39 258 277
-0.074439511 0.69599998 -0.045151837 2.3020013e-39 259 277
-0.073219195 0.69599998 -0.045151837 2.1172555e-39 260 277
-0.071791984 0.69400001 -0.045022093 2.1172555e-39 261 277
-0.07057517 0.69400001 -0.045022093 1.9335873e-39 262 277
-0.069258414 0.69300002 -0.044957221 2.0257829e-39 263 277
-0.068043359 0.69300002 -0.044957221 2.0265032e-39 264 277
-0.066828303 0.69300002 -0.044957221 2.0265032e-39 265 277
-0.065423876 0.69099998 -0.044827472 2.1190576e-39 266 277
-0.06421233 0.69099998 -0.044827472 2.1190576e-39 267 277
-0.063000768 0.69099998 -0.044827472 2.302367e-39 268 277
-0.061699796 0.69 -0.0447626 2.1183359e-39 269 277
-0.060489997 0.69 -0.0447626 1.4754832e-39 270 277
-0.059108373 0.68800002 -0.044632856 1.3832876e-39 271 277
-0.057817914 0.68699998 -0.044567976 1.2900171e-39 272 277
-0.056613375 0.68699998 -0.044567976 1.1056245e-39 273 277
-0.055408835 0.68699998 -0.044567976 1.0130757e-39 274 277
-0.054125395 0.68599999 -0.044503104 1.0130757e-39 275 277
-0.05292261 0.68599999 -0.044503104 1.0130785e-39 276 277
-0.051719822 0.68599999 -0.044503104 1.2896668e-39 277 277
-0.050517038 0.68599999 -0.044503104 1.1085112e-39 278 277
-0.049098592 0.68300003 -0.044308487 9.2448004e-40 279 277
-0.047901068 0.68300003 -0.044308487 1.1059916e-39 280 277
-0.046635158 0.68199998 -0.044243611 7.3756784e-40 281 277
-0.045306131 0.68000001 -0.044113863 1.0130757e-39 282 277
-0.043854371 0.676 -0.043854371 1.1052714e-39 283 277
-0.042606 0.67500001 -0.043789499 1.1974684e-39 284 277
-0.041361131 0.67400002 -0.043724626 1.1974684e-39 285 277
-0.040060159 0.67199999 -0.043594878 1.2900228e-39 286 277
-0.038824059 0.671 -0.043530006 1.2900228e-39 287 277
-0.037591465 0.67000002 -0.043465134 1.5662467e-39 288 277
-0.036416732 0.67000002 -0.043465134 1.6584423e-39 289 277
-0.035136797 0.66799998 -0.043335386 1.8431937e-39 290 277
-0.033914726 0.667 -0.04327051 1.9353894e-39 291 277
-0.032696161 0.66600001 -0.043205637 2.3030929e-39 292 277
-0.031528439 0.66600001 -0.043205637 2.3956472e-39 293 277
-0.030360719 0.66600001 -0.043205637 2.5789567e-39 294 277
-0.029192999 0.66600001 -0.043205637 2.5789567e-39 295 277
-0.028025279 0.66600001 -0.043205637 2.6722285e-39 296 277
-0.026857559 0.66600001 -0.043205637 2.6722285e-39 297 277
-0.02568984 0.66600001 -0.043205637 2.6715055e-39 298 277
-0.02452212 0.66600001 -0.043205637 2.5793098e-39 299 277
-0.023354398 0.66600001 -0.043205637 2.3938438e-39 300 277
-0.022219993 0.667 -0.04327051 1.8410287e-39 301 277
-0.021082079 0.66799998 -0.043335386 1.196388e-39 302 277
-0.019910853 0.66799998 -0.043335386 9.2016124e-40 303 277
-0.018739626 0.66799998 -0.043335386 8.2797822e-40 304 277
-0.017568398 0.66799998 -0.043335386 1.0127282e-39 305 277
-0.016397171 0.66799998 -0.043335386 1.7492213e-39 306 277
-0.015225946 0.66799998 -0.043335386 2.2101994e-39 307 277
-0.014054719 0.66799998 -0.043335386 2.8555632e-39 308 277
-0.012883492 0.66799998 -0.043335386 3.408737e-39 309 277
-0.011642133 0.66399997 -0.043075889 3.6878252e-39 310 277
-0.010477919 0.66399997 -0.043075889 3.8722165e-39 311 277
-0.0093137063 0.66399997 -0.043075889 4.2402731e-39 312 277
0 0.65499997 -0.042492028 2.4896155e-39 320 277
0.0011642133 0.66399997 -0.043075889 2.1204743e-39 321 277
0.0034926396 0.66399997 -0.043075889 1.1988963e-39 323 277
0.0046568532 0.66399997 -0.043075889 1.197474e-39 324 277
0.0058122999 0.66299999 -0.043011017 1.2896696e-39 325 277
0.0069642398 0.662 -0.042946145 1.3833058e-39 326 277
0.0081249457 0.662 -0.042946145 1.7520897e-39 327 277
0.009285653 0.662 -0.042946145 2.212349e-39 328 277
0.01044636 0.662 -0.042946145 2.3963801e-39 329 277
0.011607066 0.662 -0.042946145 2.4860576e-39 330 277
0.012787059 0.66299999 -0.043011017 2.3016664e-39 331 277
0.013949519 0.66299999 -0.043011017 1.9328838e-39 332 277
0.015111978 0.66299999 -0.043011017 1.8406882e-39 333 277
0.016274439 0.66299999 -0.043011017 1.4737008e-39 334 277
0.017436899 0.66299999 -0.043011017 1.2896696e-39 335 277
0.018599359 0.66299999 -0.043011017 1.1052756e-39 336 277
0.019851239 0.66600001 -0.043205637 1.0130785e-39 337 277
0.02101896 0.66600001 -0.043205637 9.208801e-40 338 277
0.02218668 0.66600001 -0.043205637 6.4465335e-40 339 277
0.023354398 0.66600001 -0.043205637 6.4465335e-40 340 277
0.024558939 0.667 -0.04327051 9.208801e-40 341 277
0.025766984 0.66799998 -0.043335386 7.3828671e-40 342 277
0.026938211 0.66799998 -0.043335386 6.4609108e-40 343 277
0.028067358 0.667 -0.04327051 8.2868447e-40 344 277
0.029236831 0.667 -0.04327051 8.2868447e-40 345 277
0.030360719 0.66600001 -0.043205637 8.290376e-40 346 277
0.031528439 0.66600001 -0.043205637 9.2123323e-40 347 277
0.032745253 0.667 -0.04327051 1.0134261e-39 348 277
0.033914726 0.667 -0.04327051 1.2903731e-39 349 277
0.035084199 0.667 -0.04327051 1.8435441e-39 350 277
0.036253672 0.667 -0.04327051 2.2119664e-39 351 277
0.036637653 0.653 -0.042362284 2.6725817e-39 352 277
0.037724718 0.65200001 -0.042297412 3.0413642e-39 353 277
0.038867895 0.65200001 -0.042297412 4.2363074e-39 354 277
0.040011063 0.65200001 -0.042297412 4.4206987e-39 355 277
0.041154239 0.65200001 -0.042297412 4.6065221e-39 356 277
0.042167664 0.64999998 -0.042167664 4.6987177e-39 357 277
0.04330733 0.64999998 -0.042167664 4.0540644e-39 358 277
0.044446997 0.64999998 -0.042167664 3.5008906e-39 359 277
0.045726933 0.65200001 -0.042297412 2.9495217e-39 360 277
0.046726331 0.64999998 -0.042167664 2.7647717e-39 361 277
0.047865998 0.64999998 -0.042167664 2.3959976e-39 362 277
0.049005665 0.64999998 -0.042167664 2.0268563e-39 363 277
0.050299626 0.65200001 -0.042297412 1.7491988e-39 364 277
0.051442798 0.65200001 -0.042297412 1.2882207e-39 365 277
0.052827932 0.65499997 -0.042492028 1.2878648e-39 366 277
0.054141179 0.65700001 -0.04262178 1.4726161e-39 367 277
0.055124797 0.65499997 -0.042492028 1.0145219e-39 368 277
0.056273226 0.65499997 -0.042492028 9.2232624e-40 369 277
0.057596996 0.65700001 -0.04262178 8.2941315e-40 370 277
0.058748938 0.65700001 -0.04262178 7.3721752e-40 371 277
0.05990088 0.65700001 -0.04262178 1.2878648e-39 372 277
0.061052818 0.65700001 -0.04262178 1.7488429e-39 373 277
0.061257958 0.64700001 -0.041973047 2.1183359e-39 374 277
0.062392361 0.64700001 -0.041973047 3.039932e-39 375 277
0.063526772 0.64700001 -0.041973047 4.3281401e-39 376 277
0.064661182 0.64700001 -0.041973047 4.6965625e-39 377 277
0.065795586 0.64700001 -0.041973047 4.6969156e-39 378 277
0.066826545 0.64600003 -0.041908171 4.9738627e-39 379 277
0.067959204 0.64600003 -0.041908171 5.3415634e-39 380 277
0.069091856 0.64600003 -0.041908171 5.7103459e-39 381 277
0.069898389 0.64300001 -0.041713554 4.9767311e-39 382 277
0.070915326 0.64200002 -0.041648682 4.4235573e-39 383 277
0.07484629 0.667 -0.04327051 3.7781879e-39 384 277
0.076015763 0.667 -0.04327051 3.2250141e-39 385 277
0.077069521 0.66600001 -0.043205637 2.7647605e-39 386 277
0.078002289 0.66399997 -0.043075889 2.3956192e-39 387 277
0.079166502 0.66399997 -0.043075889 1.9342907e-39 388 277
0.079967782 0.66100001 -0.042881273 1.7498995e-39 389 277
0.080758527 0.65799999 -0.042686652 1.6573535e-39 390 277
0.08191222 0.65799999 -0.042686652 1.4729637e-39 391 277
0.082939677 0.65700001 -0.04262178 1.1967439e-39 392 277
0.084091611 0.65700001 -0.04262178 1.0127128e-39 393 277
0.084984057 0.65499997 -0.042492028 9.208773e-40 394 277
0.085869491 0.653 -0.042362284 1.0134317e-39 395 277
0.086881176 0.65200001 -0.042297412 8.2976067e-40 396 277
0.087754332 0.64999998 -0.042167664 8.2976067e-40 397 277
0.088893995 0.64999998 -0.042167664 8.2941034e-40 398 277
0.089895152 0.64899999 -0.042102791 9.2160738e-40 399 277
0.091033064 0.64899999 -0.042102791 1.4733476e-39 400 277
0.092028953 0.648 -0.042037919 1.7502946e-39 401 277
0.093021348 0.64700001 -0.041973047 1.9346887e-39 402 277
0.094010234 0.64600003 -0.041908171 1.7499387e-39 403 277
0.095142886 0.64600003 -0.041908171 1.6573788e-39 404 277
0.096275538 0.64600003 -0.041908171 1.5648244e-39 405 277
0.097558975 0.64700001 -0.041973047 1.473698e-39 406 277
0.098693378 0.64700001 -0.041973047 1.473698e-39 407 277
0.099827781 0.64700001 -0.041973047 1.474407e-39 408 277
0.10096219 0.64700001 -0.041973047 1.5666026e-39 409 277
0.10209659 0.64700001 -0.041973047 1.474407e-39 410 277
0.10323101 0.64700001 -0.041973047 1.474407e-39 411 277
0.10436542 0.64700001 -0.041973047 1.8403197e-39 412 277
0.10549982 0.64700001 -0.041973047 2.2091008e-39 413 277
0.10663422 0.64700001 -0.041973047 2.3030957e-39 414 277
0.1079352 0.648 -0.042037919 2.9484651e-39 415 277
0.10923968 0.64899999 -0.042102791 3.7756992e-39 416 277
0.11020751 0.648 -0.042037919 4.1448405e-39 417 277
0.11134368 0.648 -0.042037919 4.6983674e-39 418 277
0.11265341 0.64899999 -0.042102791 4.8827586e-39 419 277
0.11379133 0.64899999 -0.042102791 5.7121466e-39 420 277
0.11492924 0.64899999 -0.042102791 5.7121466e-39 421 277
0.11606716 0.64899999 -0.042102791 6.3549936e-39 422 277
0.11720507 0.64899999 -0.042102791 6.3549936e-39 423 277
0.11834299 0.64899999 -0.042102791 6.4471893e-39 424 277
0.11948089 0.64899999 -0.042102791 6.3549936e-39 425 277
0.12043297 0.648 -0.042037919 6.4475452e-39 426 277
0.12138151 0.64700001 -0.041973047 6.4475452e-39 427 277
0.12251592 0.64700001 -0.041973047 6.4475452e-39 428 277
0.12365033 0.64700001 -0.041973047 6.4475452e-39 429 277
0.12478472 0.64700001 -0.041973047 6.4471921e-39 430 277
0.12591913 0.64700001 -0.041973047 6.4471921e-39 431 277
0.12646443 0.64399999 -0.041778423 6.7227e-39 432 277
0.12759356 0.64399999 -0.041778423 6.8152543e-39 433 277
0.12832296 0.64200002 -0.041648682 6.7234216e-39 434 277
0.12944859 0.64200002 -0.041648682 6.7234216e-39 435 277
0.13057424 0.64200002 -0.041648682 6.5404723e-39 436 277
0.13149473 0.64099997 -0.041583803 6.7252237e-39 437 277
0.13261862 0.64099997 -0.041583803 6.7248706e-39 438 277
0.13311657 0.63800001 -0.041389186 6.8170662e-39 439 277
0.13423519 0.63800001 -0.041389186 7.1840565e-39 440 277
0.13535382 0.63800001 -0.041389186 7.5524788e-39 441 277
0.13647245 0.63800001 -0.041389186 7.8297762e-39 442 277
0.13759108 0.63800001 -0.041389186 8.2907543e-39 443 277
-0.079548739 0.69800001 -0.046505414 3.8685815e-39 255 278
-0.078212693 0.69700003 -0.046438783 3.4990927e-39 256 278
-0.076990619 0.69700003 -0.046438783 3.1306689e-39 257 278
-0.075659841 0.69599998 -0.046372157 2.6700607e-39 258 278
-0.074225612 0.69400001 -0.046238903 2.5778651e-39 259 278
-0.073008798 0.69400001 -0.046238903 2.5767931e-39 260 278
-0.07168854 0.69300002 -0.04617228 2.3924004e-39 261 278
-0.070473477 0.69300002 -0.04617228 1.9335873e-39 262 278
-0.069258414 0.69300002 -0.04617228 2.0257829e-39 263 278
-0.067846984 0.69099998 -0.046039023 1.7506408e-39 264 278
-0.06663543 0.69099998 -0.046039023 1.7506408e-39 265 278
-0.065423876 0.69099998 -0.046039023 1.9353922e-39 266 278
-0.06421233 0.69099998 -0.046039023 1.9353922e-39 267 278
-0.062909603 0.69 -0.045972396 1.9353866e-39 268 278
-0.061699796 0.69 -0.045972396 1.9353866e-39 269 278
-0.060489997 0.69 -0.045972396 2.0268563e-39 270 278
-0.059108373 0.68800002 -0.045839146 1.9346593e-39 271 278
-0.057817914 0.68699998 -0.045772515 1.6584325e-39 272 278
-0.056530971 0.68599999 -0.045705888 1.4736825e-39 273 278
-0.055328183 0.68599999 -0.045705888 1.2889396e-39 274 278
-0.054125395 0.68599999 -0.045705888 1.0127128e-39 275 278
-0.05292261 0.68599999 -0.045705888 1.2885906e-39 276 278
-0.051719822 0.68599999 -0.045705888 1.4729819e-39 277 278
-0.050517038 0.68599999 -0.045705888 1.108514e-39 278 278
-0.049098592 0.68300003 -0.045506012 8.3192848e-40 279 278
-0.047901068 0.68300003 -0.045506012 9.219591e-40 280 278
-0.04670354 0.68300003 -0.045506012 8.2976347e-40 281 278
-0.045039624 0.676 -0.045039624 9.208801e-40 282 278
-0.043789499 0.67500001 -0.044972997 1.0130757e-39 283 278
-0.042542879 0.67400002 -0.044906374 1.1052756e-39 284 278
-0.041238401 0.67199999 -0.044773117 1.1052756e-39 285 278
-0.040000543 0.671 -0.044706494 9.219591e-40 286 278
-0.038766202 0.67000002 -0.044639867 9.219591e-40 287 278
-0.037479252 0.66799998 -0.044506609 1.1981873e-39 288 278
-0.036308024 0.66799998 -0.044506609 1.3829373e-39 289 278
-0.035084199 0.667 -0.044439986 1.5673285e-39 290 278
-0.03386388 0.66600001 -0.04437336 1.751361e-39 291 278
-0.03259797 0.66399997 -0.044240102 1.9353922e-39 292 278
-0.031433757 0.66399997 -0.044240102 2.1194233e-39 293 278
-0.030269546 0.66399997 -0.044240102 2.4867639e-39 294 278
-0.02910533 0.66399997 -0.044240102 2.4867639e-39 295 278
-0.027941117 0.66399997 -0.044240102 2.1194205e-39 296 278
-0.026776904 0.66399997 -0.044240102 2.1194205e-39 297 278
-0.025612691 0.66399997 -0.044240102 2.3020167e-39 298 278
-0.024448479 0.66399997 -0.044240102 2.0257885e-39 299 278
-0.023354398 0.66600001 -0.04437336 1.8410385e-39 300 278
-0.02218668 0.66600001 -0.04437336 1.3804191e-39 301 278
-0.02101896 0.66600001 -0.04437336 9.2016124e-40 302 278
-0.019881045 0.667 -0.044439986 8.2796561e-40 303 278
-0.018711573 0.667 -0.044439986 5.5210459e-40 304 278
-0.0175421 0.667 -0.044439986 8.2833134e-40 305 278
-0.016372627 0.667 -0.044439986 1.1045721e-39 306 278
-0.015203152 0.667 -0.044439986 1.4729945e-39 307 278
-0.014012639 0.66600001 -0.04437336 1.7503101e-39 308 278
-0.01284492 0.66600001 -0.04437336 2.3956795e-39 309 278
-0.011642133 0.66399997 -0.044240102 2.6747719e-39 310 278
-0.010477919 0.66399997 -0.044240102 3.2279457e-39 311 278
-0.0093137063 0.66399997 -0.044240102 3.6885483e-39 312 278
0.0034926396 0.66399997 -0.044240102 1.9346439e-39 323 278
0.0046568532 0.66399997 -0.044240102 1.4729693e-39 324 278
0.0058035329 0.662 -0.044106852 1.3804135e-39 325 278
0.0069642398 0.662 -0.044106852 1.197474e-39 326 278
0.0081249457 0.662 -0.044106852 1.658092e-39 327 278
0.009285653 0.662 -0.044106852 1.5669768e-39 328 278
0.01044636 0.662 -0.044106852 1.7510079e-39 329 278
0.011607066 0.662 -0.044106852 1.6573731e-39 330 278
0.012767773 0.662 -0.044106852 1.5651775e-39 331 278
0.01392848 0.662 -0.044106852 1.4729819e-39 332 278
0.015089186 0.662 -0.044106852 1.3807863e-39 333 278
0.016249891 0.662 -0.044106852 1.1052756e-39 334 278
0.017436899 0.66299999 -0.044173479 1.1052756e-39 335 278
0.018599359 0.66299999 -0.044173479 1.0134317e-39 336 278
0.019791625 0.66399997 -0.044240102 1.0134317e-39 337 278
0.02101896 0.66600001 -0.04437336 9.208773e-40 338 278
0.02218668 0.66600001 -0.04437336 6.4465054e-40 339 278
0.023354398 0.66600001 -0.04437336 6.4536941e-40 340 278
0.02452212 0.66600001 -0.04437336 7.3756504e-40 341 278
0.025728412 0.667 -0.044439986 8.301166e-40 342 278
0.026897885 0.667 -0.044439986 8.301166e-40 343 278
0.028067358 0.667 -0.044439986 1.1967383e-39 344 278
0.029192999 0.66600001 -0.04437336 1.2892927e-39 345 278
0.030360719 0.66600001 -0.04437336 1.3811226e-39 346 278
0.031528439 0.66600001 -0.04437336 1.4733196e-39 347 278
0.032745253 0.667 -0.044439986 1.1066979e-39 348 278
0.033406258 0.65700001 -0.043773718 1.1988935e-39 349 278
0.034400396 0.65399998 -0.043573838 1.6584423e-39 350 278
0.035492726 0.653 -0.043507211 1.9353894e-39 351 278
0.036637653 0.653 -0.043507211 2.2109001e-39 352 278
0.03778258 0.653 -0.043507211 2.5793224e-39 353 278
0.038867895 0.65200001 -0.043440588 2.9484651e-39 354 278
0.040011063 0.65200001 -0.043440588 3.5016389e-39 355 278
0.041154239 0.65200001 -0.043440588 3.7796551e-39 356 278
0.042167664 0.64999998 -0.04330733 3.8718507e-39 357 278
0.04330733 0.64999998 -0.04330733 3.869327e-39 358 278
0.044446997 0.64999998 -0.04330733 3.6849357e-39 359 278
0.045586664 0.64999998 -0.04330733 2.3970808e-39 360 278
0.046654444 0.64899999 -0.043240704 2.1208526e-39 361 278
0.047792356 0.64899999 -0.043240704 1.9353922e-39 362 278
0.048930272 0.64899999 -0.043240704 1.5662495e-39 363 278
0.050068185 0.64899999 -0.043240704 1.4726161e-39 364 278
0.051206097 0.64899999 -0.043240704 1.2878648e-39 365 278
0.052827932 0.65499997 -0.043640465 1.2882207e-39 366 278
0.053976361 0.65499997 -0.043640465 1.4726133e-39 367 278
0.054872319 0.65200001 -0.043440588 1.4733322e-39 368 278
0.056015491 0.65200001 -0.043440588 1.3811366e-39 369 278
0.057596996 0.65700001 -0.043773718 1.0130785e-39 370 278
0.058748938 0.65700001 -0.043773718 9.208829e-40 371 278
0.05990088 0.65700001 -0.043773718 1.2885878e-39 372 278
0.061052818 0.65700001 -0.043773718 1.7499247e-39 373 278
0.061257958 0.64700001 -0.043107454 2.1197764e-39 374 278
0.062392361 0.64700001 -0.043107454 2.580756e-39 375 278
0.063526772 0.64700001 -0.043107454 4.4207015e-39 376 278
0.06456124 0.64600003 -0.043040827 4.6976485e-39 377 278
0.065693893 0.64600003 -0.043040827 4.3303051e-39 378 278
0.06661965 0.64399999 -0.042907573 4.3303051e-39 379 278
0.0677488 0.64399999 -0.042907573 4.4228665e-39 380 278
0.068877943 0.64399999 -0.042907573 4.6076165e-39 381 278
0.069898389 0.64300001 -0.042840946 4.5182893e-39 382 278
0.070915326 0.64200002 -0.04277432 4.0573112e-39 383 278
0.07204096 0.64200002 -0.04277432 3.5026955e-39 384 278
0.073166594 0.64200002 -0.04277432 2.9495217e-39 385 278
0.074292243 0.64200002 -0.04277432 2.3967136e-39 386 278
0.075417876 0.64200002 -0.04277432 1.9360956e-39 387 278
0.078808829 0.66100001 -0.044040225 1.9346565e-39 388 278
0.079967782 0.66100001 -0.044040225 1.7506254e-39 389 278
0.080390327 0.65499997 -0.043640465 1.8410231e-39 390 278
0.081538759 0.65499997 -0.043640465 1.7488275e-39 391 278
0.082687192 0.65499997 -0.043640465 1.4729665e-39 392 278
0.083707638 0.65399998 -0.043573838 1.2885738e-39 393 278
0.084724568 0.653 -0.043507211 1.2882207e-39 394 278
0.085738003 0.65200001 -0.043440588 1.1960251e-39 395 278
0.086881176 0.65200001 -0.043440588 9.208801e-40 396 278
0.087754332 0.64999998 -0.04330733 9.208801e-40 397 278
0.088757232 0.64899999 -0.043240704 8.2941034e-40 398 278
0.089895152 0.64899999 -0.043240704 8.2941034e-40 399 278
0.091033064 0.64899999 -0.043240704 1.2893137e-39 400 278
0.091886938 0.64700001 -0.043107454 1.5658992e-39 401 278
0.092877574 0.64600003 -0.043040827 1.383303e-39 402 278
0.094010234 0.64600003 -0.043040827 1.2911074e-39 403 278
0.095142886 0.64600003 -0.043040827 1.2896668e-39 404 278
0.096275538 0.64600003 -0.043040827 1.1974712e-39 405 278
0.09740819 0.64600003 -0.043040827 1.1985432e-39 406 278
0.098540843 0.64600003 -0.043040827 1.2907388e-39 407 278
0.099673495 0.64600003 -0.043040827 1.1985404e-39 408 278
0.10080615 0.64600003 -0.043040827 1.290736e-39 409 278
0.10209659 0.64700001 -0.043107454 1.2900171e-39 410 278
0.10323101 0.64700001 -0.043107454 1.2900171e-39 411 278
0.10436542 0.64700001 -0.043107454 1.8406728e-39 412 278
0.10549982 0.64700001 -0.043107454 2.2094539e-39 413 278
0.10663422 0.64700001 -0.043107454 2.4867639e-39 414 278
0.10776863 0.64700001 -0.043107454 2.7633522e-39 415 278
0.10890304 0.64700001 -0.043107454 3.4069223e-39 416 278
0.10986737 0.64600003 -0.043040827 3.5913136e-39 417 278
0.11100002 0.64600003 -0.043040827 3.6849483e-39 418 278
0.11230626 0.64700001 -0.043107454 4.2381221e-39 419 278
0.113616 0.648 -0.043174081 4.6079696e-39 420 278
0.11475215 0.648 -0.043174081 5.1607847e-39 421 278
0.11588832 0.648 -0.043174081 5.9876545e-39 422 278
0.11684388 0.64700001 -0.043107454 6.0798515e-39 423 278
0.11797829 0.64700001 -0.043107454 6.3553496e-39 424 278
0.1192968 0.648 -0.043174081 6.4475452e-39 425 278
0.1202471 0.64700001 -0.043107454 6.4475424e-39 426 278
0.12119391 0.64600003 -0.043040827 6.4475424e-39 427 278
0.12232657 0.64600003 -0.043040827 6.4475452e-39 428 278
0.12345921 0.64600003 -0.043040827 6.4475452e-39 429 278
0.12459187 0.64600003 -0.043040827 6.4471893e-39 430 278
0.12533528 0.64399999 -0.042907573 6.4471893e-39 431 278
0.12607168 0.64200002 -0.04277432 6.4471893e-39 432 278
0.12699918 0.64099997 -0.042707693 6.4471893e-39 433 278
0.12792319 0.63999999 -0.042641066 6.3557153e-39 434 278
0.12904532 0.63999999 -0.042641066 6.5401066e-39 435 278
0.13016745 0.63999999 -0.042641066 6.5397534e-39 436 278
0.13128959 0.63999999 -0.042641066 6.6323078e-39 437 278
0.13199794 0.63800001 -0.042507812 6.6319547e-39 438 278
0.13311657 0.63800001 -0.042507812 6.7241503e-39 439 278
0.13423519 0.63800001 -0.042507812 6.8159942e-39 440 278
0.13535382 0.63800001 -0.042507812 7.0003841e-39 441 278
0.13647245 0.63800001 -0.042507812 7.0922238e-39 442 278
0.13759108 0.63800001 -0.042507812 7.3691694e-39 443 278
0.13870969 0.63800001 -0.042507812 7.6457479e-39 444 278
0.13982832 0.63800001 -0.042507812 8.0148891e-39 445 278
-0.080772556 0.69800001 -0.047729239 4.2409766e-39 254 279
-0.079548739 0.69800001 -0.047729239 3.5956071e-39 255 279
-0.078212693 0.69700003 -0.047660861 3.409425e-39 256 279
-0.076990619 0.69700003 -0.047660861 3.0402824e-39 257 279
-0.075659841 0.69599998 -0.047592476 2.8551736e-39 258 279
-0.074225612 0.69400001 -0.047455717 2.6704237e-39 259 279
-0.072903603 0.69300002 -0.047387339 2.3016481e-39 260 279
-0.07168854 0.69300002 -0.047387339 2.2094511e-39 261 279
-0.070270091 0.69099998 -0.047250576 1.750275e-39 262 279
-0.069058537 0.69099998 -0.047250576 1.9343062e-39 263 279
-0.067846984 0.69099998 -0.047250576 1.750275e-39 264 279
-0.066538997 0.69 -0.047182199 1.9343062e-39 265 279
-0.065329194 0.69 -0.047182199 2.0265032e-39 266 279
-0.064119399 0.69 -0.047182199 2.0265032e-39 267 279
-0.06272725 0.68800002 -0.047045439 2.0265032e-39 268 279
-0.06152096 0.68800002 -0.047045439 2.1190576e-39 269 279
-0.060226995 0.68699998 -0.046977058 2.1190547e-39 270 279
-0.058936544 0.68599999 -0.046908677 2.0268591e-39 271 279
-0.057565439 0.68400002 -0.046771921 1.8431909e-39 272 279
-0.056283753 0.68300003 -0.04670354 1.5666026e-39 273 279
-0.055086225 0.68300003 -0.04670354 1.2900171e-39 274 279
-0.053888701 0.68300003 -0.04670354 1.1056245e-39 275 279
-0.05276832 0.68400002 -0.046771921 1.2889396e-39 276 279
-0.051569041 0.68400002 -0.046771921 1.4733322e-39 277 279
-0.05029612 0.68300003 -0.04670354 1.1981901e-39 278 279
-0.049026705 0.68199998 -0.046635158 9.2196331e-40 279 279
-0.047830928 0.68199998 -0.046635158 9.208829e-40 280 279
-0.046224877 0.676 -0.046224877 9.208829e-40 281 279
-0.044972997 0.67500001 -0.0461565 9.208829e-40 282 279
-0.043724626 0.67400002 -0.046088122 1.0130785e-39 283 279
-0.042542879 0.67400002 -0.046088122 9.208829e-40 284 279
-0.041177034 0.671 -0.045882981 9.208829e-40 285 279
-0.040000543 0.671 -0.045882981 1.0134317e-39 286 279
-0.038766202 0.67000002 -0.0458146 1.0134317e-39 287 279
-0.037479252 0.66799998 -0.045677837 1.1056273e-39 288 279
-0.036253672 0.667 -0.045609459 1.1978243e-39 289 279
-0.035031598 0.66600001 -0.045541082 1.5655306e-39 290 279
-0.03386388 0.66600001 -0.045541082 1.6577263e-39 291 279
-0.03259797 0.66399997 -0.045404319 2.0257857e-39 292 279
-0.031433757 0.66399997 -0.045404319 2.1179828e-39 293 279
-0.030269546 0.66399997 -0.045404319 2.4849632e-39 294 279
-0.02910533 0.66399997 -0.045404319 2.3009307e-39 295 279
-0.027941117 0.66399997 -0.045404319 2.208735e-39 296 279
-0.026776904 0.66399997 -0.045404319 2.1161807e-39 297 279
-0.025612691 0.66399997 -0.045404319 2.0239907e-39 298 279
-0.024448479 0.66399997 -0.045404319 1.9314363e-39 299 279
-0.023284266 0.66399997 -0.045404319 1.3800646e-39 300 279
-0.022120051 0.66399997 -0.045404319 1.1956719e-39 301 279
-0.02101896 0.66600001 -0.045541082 6.4465335e-40 302 279
-0.019851239 0.66600001 -0.045541082 6.4465335e-40 303 279
-0.018683519 0.66600001 -0.045541082 6.4465335e-40 304 279
-0.0175421 0.667 -0.045609459 6.4465335e-40 305 279
-0.016348081 0.66600001 -0.045541082 8.2833415e-40 306 279
-0.01518036 0.66600001 -0.045541082 1.0127254e-39 307 279
-0.013970559 0.66399997 -0.045404319 1.7477737e-39 308 279
-0.012806346 0.66399997 -0.045404319 2.3009475e-39 309 279
-0.0116246 0.66299999 -0.045335937 2.7630018e-39 310 279
-0.01046214 0.66299999 -0.045335937 3.2239786e-39 311 279
-0.0092996797 0.66299999 -0.045335937 3.8704172e-39 312 279
-0.0081372196 0.66299999 -0.045335937 4.0548098e-39 313 279
0 0.65499997 -0.044788897 3.5034143e-39 320 279
0.00115194 0.65700001 -0.04492566 3.1346332e-39 321 279
0.0023038799 0.65700001 -0.04492566 2.5814622e-39 322 279
0.0034821199 0.662 -0.04526756 2.1201239e-39 323 279
0.0046428265 0.662 -0.04526756 1.5658838e-39 324 279
0.0058035329 0.662 -0.04526756 1.2889367e-39 325 279
0.00695372 0.66100001 -0.045199182 1.3804191e-39 326 279
0.0081126727 0.66100001 -0.045199182 1.7488429e-39 327 279
0.0092716264 0.66100001 -0.045199182 1.4758517e-39 328 279
0.01043058 0.66100001 -0.045199182 1.2914605e-39 329 279
0.011589534 0.66100001 -0.045199182 1.2900228e-39 330 279
0.012767773 0.662 -0.04526756 1.1974684e-39 331 279
0.01392848 0.662 -0.04526756 1.196388e-39 332 279
0.015089186 0.662 -0.04526756 1.196388e-39 333 279
0.016249891 0.662 -0.04526756 1.0130757e-39 334 279
0.017410601 0.662 -0.04526756 1.0130757e-39 335 279
0.018571306 0.662 -0.04526756 1.0130757e-39 336 279
0.019761819 0.66299999 -0.045335937 9.208801e-40 337 279
0.020955838 0.66399997 -0.045404319 9.2016124e-40 338 279
0.022120051 0.66399997 -0.045404319 8.2796561e-40 339 279
0.023354398 0.66600001 -0.045541082 8.2868447e-40 340 279
0.02452212 0.66600001 -0.045541082 1.0130757e-39 341 279
0.025728412 0.667 -0.045609459 1.1985404e-39 342 279
0.026897885 0.667 -0.045609459 1.290736e-39 343 279
0.028067358 0.667 -0.045609459 1.566953e-39 344 279
0.029192999 0.66600001 -0.045541082 1.566953e-39 345 279
0.030360719 0.66600001 -0.045541082 1.3836407e-39 346 279
0.031528439 0.66600001 -0.045541082 1.2914451e-39 347 279
0.032156132 0.65499997 -0.044788897 1.1063448e-39 348 279
0.033304565 0.65499997 -0.044788897 9.2231223e-40 349 279
0.034347799 0.653 -0.044652138 1.6566473e-39 350 279
0.035492726 0.653 -0.044652138 1.8410385e-39 351 279
0.036637653 0.653 -0.044652138 2.3016509e-39 352 279
